# .PCD v0.7 - Point Cloud Data file format
VERSION 0.7
FIELDS x y z
SIZE 4 4 4
TYPE F F F
COUNT 1 1 1
WIDTH 147
HEIGHT 1
VIEWPOINT 0 0 0 1 0 0 0
POINTS 147
DATA ascii
-1.2825432 -1.1581894 0.092777133
-0.85863858 -1.8458222 0.37224597
-1.1293699 -1.5656615 0.33911276
-1.3004133 -1.6499507 0.036540758
-1.6485019 -1.79142 0.11204655
-1.0936549 -1.1582886 0.19726954
-1.335503 -1.1976109 0.086840257
-1.5175288 -1.9560519 0.097563908
-1.5082012 -1.8784254 0.28133848
-1.7419983 -0.61771172 -0.10290888
-1.4304445 -0.79573017 0.0025767931
-1.5836508 -1.6714648 0.17407322
-1.7057761 -1.7545434 0.11577915
-1.1458203 -1.7867796 0.34953195
-1.4937239 -0.69066185 -0.097002409
-1.0174149 -1.1348176 0.55183989
-1.6182184 -1.8777846 0.084485888
-1.7070737 -2.1245532 0.23570484
-1.3137037 -0.82461762 0.26554593
-1.2144867 -1.0087454 0.18016821
-1.416229 -0.79651684 0.019027211
-1.3306547 -1.0465413 0.16128185
-1.3055965 -1.101244 0.12127376
-1.0969107 -1.1088905 0.23921433
-0.90566391 -1.0995213 0.93825388
-0.98410863 -1.108256 0.53534305
-1.0312015 -1.158595 0.37745333
-1.8106831 -1.6459448 0.054524597
-1.47594 -1.7601537 0.13598022
-1.2885034 -0.59719372 -0.074661441
-0.70832586 -0.84075242 0.18638428
-1.6324422 -3.2739911 1.0605758
-1.6240537 -1.6792881 0.1143722
-1.3090318 -1.0755386 0.19506256
-0.91271597 -1.8531022 0.52034551
-1.8459604 -1.5562382 0.016511666
-0.88787913 -1.6397934 0.49050918
-0.97334892 -1.0763214 0.49011612
-1.3740811 -1.6878304 1.8048935
-1.7673553 -0.59598911 -0.16639626
-1.5082263 -0.78261763 0.032127548
-1.1706882 -1.9081491 0.38029215
-0.959804 -1.0752575 0.51480818
-1.260763 -1.0661145 0.37651679
-1.2862704 -1.0746199 0.23623644
-1.0858898 -1.0591563 0.087906472
-0.88680631 -1.1501482 0.38422441
-1.1553869 -0.58083707 -0.28111312
-0.87109745 -1.8155398 0.25691131
-1.4999858 -1.9603614 0.1411576
-1.034093 -1.2550589 0.58390975
-1.3608286 -1.0785559 0.19112474
-1.4702625 -1.0557829 0.2947242
-1.1188654 -1.1019741 0.21401127
-2.4283867 -0.88246554 0.39560571
-1.3841143 -0.70614302 -0.028958948
-0.95772761 -0.88209432 0.53496397
-1.2654043 -1.050591 0.45302254
-1.6895102 -0.62067968 -0.16644599
-2.1071033 -0.96115488 1.2491081
-2.098995 -1.4613013 -0.0088245058
-1.4077584 -1.1122031 0.065225087
-1.5497968 -0.67804915 -0.10111383
-1.335503 -1.1976109 0.086840257
-3.2166121 -1.2682668 -0.0055135419
-1.3868413 -0.62611532 -0.027778029
-1.6158141 -0.58048338 -0.21385771
-1.4676515 -1.839644 -0.023097891
-1.2263716 -0.83137375 0.088925458
-0.9362976 -2.0073743 0.32056594
-1.1629131 -0.86584759 0.46461064
-1.4873931 -1.5167967 0.045877997
-1.6779014 -1.7185233 0.13403712
-0.85632479 -0.95214838 0.47456068
-0.93429834 -0.99591672 0.57869846
-1.0610597 -1.10616 0.23445022
-1.5023273 -1.8230888 0.19212916
-1.0936549 -1.1582886 0.19726954
-0.87678003 -1.0747163 0.67484206
-1.2282511 -1.0210307 0.40363982
-1.0370718 -0.63381082 -0.098376215
-1.2344599 -1.0404272 0.2732614
-1.2284061 -1.0366322 0.16246966
-1.4937928 -1.7385993 0.20589182
-2.043993 -1.5474132 -0.02090973
-1.8882527 -0.48259258 -0.16808717
-1.0297818 -0.74025023 0.13130113
-1.2610213 -0.77342546 0.028171346
-1.8845632 -1.6069484 0.012829267
-1.5218227 -1.9998285 0.0068699354
-0.9077847 -1.0560868 0.53504801
-0.94432586 -1.0871191 0.5702914
-1.4691043 -0.81204718 0.030853726
-0.97440237 -1.0832729 0.46601921
-0.94735074 -1.1405153 0.83164114
-0.83087885 -1.0754988 0.45320562
-1.63485 -1.8237673 0.10354379
-2.1895251 -1.6526856 0.032396041
-1.0901364 -1.0680257 0.32103726
-1.3276871 -1.0594831 0.15240641
-1.3137276 -1.1117947 0.13120094
-1.3148566 -1.7026484 0.27068603
-0.91271597 -1.8531022 0.52034551
-1.5431569 -2.0353804 0.17445298
-1.2133821 -1.879747 0.13006325
-1.3093787 -1.0812799 0.18865438
-0.98993677 -1.1963537 0.27064586
-1.4858762 -0.93303263 0.11748769
-1.4032156 -0.90332812 0.15591089
-2.109756 -0.65592664 0.018582184
-1.727897 -1.8813126 -0.15474355
-1.188658 -1.8617886 0.088031009
-2.2200849 -1.6010679 0.036886882
-1.5049174 -1.8279335 0.010803131
-1.5389056 -1.7487314 -0.016031332
-1.3397835 -1.1180331 0.28193334
-1.3097063 -1.1200205 0.073549278
-1.1558347 -1.8341439 0.44782341
-1.3480238 -1.1826148 0.076000355
-0.85887998 -0.93882638 0.4695937
-1.2693729 -1.0775099 0.31596047
-1.6267956 -0.54105258 -0.089555599
-1.3572795 -0.74384254 -0.046970952
-1.570689 -0.8035329 0.07481049
-1.3070941 -1.7186446 0.24926838
-1.1218386 -1.4859792 1.1143999
-0.79801691 -1.7510488 0.53942281
-0.86878479 -1.6023086 0.45808789
-1.6720984 -0.64113611 -0.13001677
-1.7632096 -0.51219451 -0.15439458
-0.88173395 -1.9165876 0.37276191
-1.1818322 -0.98241502 0.32395124
-1.5860254 -1.5511469 0.11894749
-1.4817564 -1.4397883 0.0010550211
-1.1975036 -1.7846586 0.33771506
-1.2825432 -1.1581894 0.092777133
-0.83871877 -1.8305244 0.46698478
-1.1250165 -1.1020609 0.18990646
-1.2018067 -0.76230019 -0.0032724098
-0.79121065 -1.2863861 0.23838626
-1.4238592 -1.8201306 -0.050077766
-1.0315752 -1.0277874 0.30455315
-1.3826083 -1.0622603 0.16078873
-1.3844302 -1.0882481 0.049815293
-1.2086495 -1.003903 0.28856629
-1.3423713 -0.71563107 -0.049637366
-0.9747141 -0.91728908 0.6083321
