# .PCD v0.7 - Point Cloud Data file format
VERSION 0.7
FIELDS x y z
SIZE 4 4 4
TYPE F F F
COUNT 1 1 1
WIDTH 97
HEIGHT 1
VIEWPOINT 0 0 0 1 0 0 0
POINTS 97
DATA ascii
-0.15362549 -0.36022004 0.67149657
-0.22373568 -0.4760319 0.5033797
-0.17787264 -0.83248287 0.45316291
-0.30101907 -0.30522123 0.45974132
-0.92988467 -1.2218668 0.92252409
-0.44072959 -0.57293063 0.29409859
0.00090698281 -0.89244449 0.78696823
-0.38799855 -0.30692041 0.27489644
-0.26177043 -0.29539931 0.58191866
-0.18432306 -0.41364101 0.55718142
-0.16561326 -0.37519532 0.5808239
-0.47898504 -0.42977425 0.26434809
-1.4313148 -0.55099577 1.0226407
0.011752547 -0.74679679 0.82498538
-0.3530809 -0.34805596 0.3945314
-0.23661354 -0.4911114 0.48339295
-0.029363841 -0.87712902 0.87493491
-0.2133745 -1.1810794 0.61436069
-0.31145388 -0.33585095 0.60547286
0.072775476 -0.98979664 0.90677857
-0.12966281 -0.96147513 0.47150397
0.10459915 -0.71520907 1.2160877
-0.38097921 -0.51796055 0.37040076
-0.3021982 -0.54985285 0.37045652
0.12930983 -0.82101262 1.0375037
0.12318501 -0.96321517 0.95928168
-0.2120849 -0.43066004 0.43973446
-0.14878854 -0.34377009 0.67834765
0.2035584 -0.56963032 1.1381317
-0.51478064 -0.46408457 0.36848623
-0.24907406 -0.24217571 0.39751026
-0.57197553 -0.63614666 0.24239025
-0.38128528 -0.58983922 0.32295695
-0.18116541 -0.87603068 0.4944396
-0.42236352 -0.54406416 0.33790958
-0.45855537 -0.53305805 0.29954603
-0.59874475 -0.73882896 0.35929057
0.0053469236 -1.0919622 1.1445386
0.13578658 -0.74324989 1.1061031
-0.26994577 -0.54828906 0.42597497
-0.34502059 -0.42507333 0.37907359
-0.41144678 -0.48586088 0.3550061
-0.40726215 -0.4848237 0.32203558
0.045463234 -1.0101476 1.0281609
-0.31862885 -0.66369867 0.32127073
-0.44036368 -0.4066492 0.36376762
-0.19825189 -0.4415333 0.54052329
-0.045330029 -0.29800376 1.0091652
-0.11734229 -0.37834701 1.0537924
-0.1859363 -0.22984082 0.27503604
0.18767306 -0.78452176 1.1249089
0.24945979 -1.2937783 1.6010073
-0.062203955 -0.77898145 0.63570887
0.30198491 -0.60449463 1.1309993
-0.16096233 -0.38992387 0.63617325
-0.25212005 -0.51195139 0.46148214
-0.19079866 -0.3726227 0.57719767
-0.092361033 -0.89897746 0.63722819
-0.39369011 -0.37797281 0.41276056
-0.47377276 -0.42849973 0.28424585
-0.47898504 -0.42977425 0.26434809
-0.62571162 -0.44615602 0.33572826
-0.40990877 -0.40190119 0.47697207
-0.50262851 -0.62543637 0.22367179
-0.90702999 -0.96514952 0.30329025
-0.22997344 -0.9994182 0.46346736
-0.46190694 -0.53642905 0.24863791
-0.4015477 -0.65312475 0.25632355
-0.5494622 -0.60010064 0.19696215
-0.51910841 -0.56250632 0.26421803
-0.39679387 -0.38941002 0.44917521
-0.2848419 -0.26897264 0.34604603
-0.09403152 -0.36195496 0.9031269
0.10459915 -0.71520907 1.2160877
-0.50955772 -0.44575876 0.23943821
-0.10669446 -1.3291478 1.1495321
-0.43978438 -0.51136982 0.29906872
-0.47951832 -0.33112717 0.50201792
-0.27721947 -1.0386827 0.43524826
-0.40528011 -0.59900457 0.26400834
-0.27456447 -0.5785287 0.54460055
-0.48680648 -0.65610582 0.24132988
-0.41137451 -0.71887535 0.23812078
-0.51814413 -0.39506194 0.64204603
-0.49022028 -0.61750746 0.25042465
-0.097177535 -1.2895985 0.81285685
-0.17982534 -0.56815076 0.53857851
-0.20772456 -0.99709231 0.41698557
-0.1404866 -0.85734558 0.37716588
0.34066439 -0.78549081 1.3788737
0.066221058 -0.87110066 0.96612763
-0.16371827 -0.38099131 0.60203385
-0.40459597 -0.54379094 0.25132796
-0.33469301 -0.33314937 0.4067077
-0.51870877 -0.56365573 0.15827163
-0.47149089 -0.70247477 0.19603144
-0.51322752 -0.55561203 0.25736499
