# .PCD v0.7 - Point Cloud Data file format
VERSION 0.7
FIELDS x y z
SIZE 4 4 4
TYPE F F F
COUNT 1 1 1
WIDTH 130
HEIGHT 1
VIEWPOINT 0 0 0 1 0 0 0
POINTS 130
DATA ascii
-1.3306547 -1.0465413 0.16128185
-1.5659193 -1.8907676 0.26253423
-1.7179376 -1.7785358 0.12250388
-1.3271983 -1.1274458 0.078906238
-1.0723472 -1.8261753 0.45986623
-1.416229 -0.79651684 0.019027211
-0.94182348 -1.0694928 0.53385627
-1.6240537 -1.6792881 0.1143722
-1.4937239 -0.69066185 -0.097002409
-1.5175288 -1.9560519 0.097563908
-2.5151403 -2.3070145 0.30669871
-1.8959535 -1.6190447 0.017185284
-1.3139751 -1.1300607 0.11189411
-1.6485019 -1.79142 0.11204655
-0.94355828 -1.148487 0.81336874
-0.7578392 -1.0785108 0.41297266
-1.5350122 -1.9842356 0.11082231
-1.6232066 -2.0073466 0.27362043
-1.5517501 -1.7685989 0.23093243
-1.3543736 -1.7425145 0.24467935
-1.4999858 -1.9603614 0.1411576
-1.5448604 -1.6290132 0.0040425593
-1.274326 -0.85687077 0.19419618
-1.3183764 -1.704101 0.27056155
-1.0858898 -1.0591563 0.087906472
-1.4702625 -1.0557829 0.2947242
-1.0174149 -1.1348176 0.55183989
-0.97693157 -1.0213333 0.29131976
-0.8908534 -1.014653 0.49807784
-1.0312015 -1.158595 0.37745333
-1.3026512 -1.755699 0.21472107
-1.0249715 -1.684389 0.40096179
-1.1193713 -1.7567381 0.41538081
-1.4382372 -1.8373035 -0.046165187
-1.3137037 -0.82461762 0.26554593
-1.5997378 -1.6448078 0.13560101
-1.325164 -0.64594978 -0.037016485
-1.1034428 -0.69776529 -0.018730126
-0.89043367 -1.8627456 0.4853608
-1.3608286 -1.0785559 0.19112474
-1.3271983 -1.1274458 0.078906238
-1.4077584 -1.1122031 0.065225087
-1.8106831 -1.6459448 0.054524597
-1.3096241 -1.1011417 0.26678544
-1.3121291 -0.91975051 0.44185764
-1.0298897 -1.1131763 0.24511588
-1.0969107 -1.1088905 0.23921433
-0.88680631 -1.1501482 0.38422441
-0.89121121 -1.0797955 0.73444992
-1.0423932 -0.75014716 0.1486398
-1.1413807 -1.834693 0.23367374
-3.2166121 -1.2682668 -0.0055135419
-0.68403572 -1.0717697 0.49298009
-1.2344599 -1.0404272 0.2732614
-1.5023273 -1.8230888 0.19212916
-0.9581461 -1.1644871 0.31330165
-1.2547057 -1.6949611 0.3042168
-1.2896677 -0.59843427 -0.21854918
-1.3306547 -1.0465413 0.16128185
-1.0800585 -1.7342881 0.35439846
-1.1975036 -1.7846586 0.33771506
-2.2441354 -2.1227612 0.065426886
-1.7179376 -1.7785358 0.12250388
-1.6249819 -1.7347761 -0.16868405
-1.3864397 -1.7379637 -0.076021872
-1.5234629 -1.7098852 0.038835783
-2.2200849 -1.6010679 0.036886882
-1.1364566 -1.1880194 0.28606069
-1.1666219 -1.426163 1.2325321
-1.1839963 -0.79593569 -0.10204939
-1.6738291 -1.7779894 0.016912235
-1.2086495 -1.003903 0.28856629
-1.2693729 -1.0775099 0.31596047
-1.2523636 -0.9605093 0.21803236
-1.3690021 -0.99596405 0.23845187
-1.5593921 -0.89416367 -0.37310579
-0.95466477 -1.2182814 0.32320917
-0.98993677 -1.1963537 0.27064586
-1.6277162 -3.2718754 1.1692346
-0.9051525 -1.8176792 0.49283412
-1.1188654 -1.1019741 0.21401127
-1.570689 -0.8035329 0.07481049
-1.344625 -1.167429 0.22757992
-1.118039 -1.1015857 0.21570911
-1.0936549 -1.1582886 0.19726954
-1.1585696 -1.1262211 0.18178017
-1.0281631 -1.1694601 0.6084187
-0.94735074 -1.1405153 0.83164114
-1.0748193 -1.1136816 0.45315561
-0.88787913 -1.6397934 0.49050918
-1.2825432 -1.1581894 0.092777133
-1.1606792 -1.1670157 0.17615774
-1.188658 -1.8617886 0.088031009
-1.5860254 -1.5511469 0.11894749
-1.5299562 -1.7982206 0.23227458
-2.098995 -1.4613013 -0.0088245058
-1.3157299 -1.7458934 0.26407206
-1.4837354 -0.57808173 -0.12225316
-2.109756 -0.65592664 0.018582184
-0.9077847 -1.0560868 0.53504801
-1.3481089 -0.66938961 -0.052803338
-1.7258656 -0.56006932 -0.15887654
-1.7823027 -0.62339592 -0.17683394
-0.86878479 -1.6023086 0.45808789
-0.89866281 -1.6576654 0.51461858
-0.87327302 -1.0546255 0.58463353
-0.9362976 -2.0073743 0.32056594
-0.81809121 -1.1689831 0.3517971
-1.8372993 -2.6473711 3.5386696
-1.6394475 -1.7466123 -0.16439722
-1.6033816 -1.9269533 0.070779197
-1.3763049 -0.98661339 0.088285364
-1.185995 -0.82043618 0.15082146
-1.4041647 -0.97774845 0.10440645
-1.5220089 -1.7228271 0.036349799
-1.8494426 -1.5602657 0.022841759
-1.3111211 -1.1503937 0.088062122
-1.3844302 -1.0882481 0.049815293
-1.3423713 -0.71563107 -0.049637366
-1.4676515 -1.839644 -0.023097891
-1.5218227 -1.9998285 0.0068699354
-1.3608286 -1.0785559 0.19112474
-1.2414687 -0.81564617 -0.067628682
-1.0643729 -1.1489687 0.2346361
-1.2018067 -0.76230019 -0.0032724098
-0.85632479 -0.95214838 0.47456068
-1.5659193 -1.8907676 0.26253423
-1.1312473 -1.7568989 0.39394405
-1.3070941 -1.7186446 0.24926838
-1.3097447 -0.69501126 -0.015593159
