# .PCD v0.7 - Point Cloud Data file format
VERSION 0.7
FIELDS x y z
SIZE 4 4 4
TYPE F F F
COUNT 1 1 1
WIDTH 55
HEIGHT 1
VIEWPOINT 0 0 0 1 0 0 0
POINTS 55
DATA ascii
0.34290805 -0.98841238 1.6274315
0.25523272 -1.0076567 1.6213976
-2.0952792 -1.4756701 2.1967978
-0.17889017 -0.51227897 0.9016
-0.06925825 -1.4062151 0.95972818
-0.1175363 -0.40224567 1.0868579
-0.13510992 -0.45338792 1.015555
-0.15383875 -0.47367829 0.96353495
-0.65155429 -0.60996342 0.77852827
-0.41579333 -0.42954078 0.77031279
0.2801958 -1.6551086 2.1559114
-0.33272752 -0.37306288 1.0247495
-0.56693649 -0.7174865 0.7072438
-0.35857397 -0.7426706 0.72347271
-0.83087885 -1.0754988 0.45320562
-0.25598484 -1.5164038 0.95110023
0.032286204 -0.87499684 0.87336701
-0.82641256 -1.0737695 0.45166793
-0.72810954 -0.55996156 0.35082844
0.010665459 -0.14060833 1.1806774
-0.076024435 -1.3984967 0.98371619
-0.85632479 -0.95214838 0.47456068
-1.1218386 -1.4859792 1.1143999
0.83487922 -0.25513533 1.4808679
0.030702626 -0.22829351 1.2371434
-1.0316278 -0.81123579 0.46415254
-1.0723191 -0.8207919 0.43231902
-1.0559667 -1.0928286 0.31285447
-0.30478355 -1.5475222 0.95197016
-0.94922912 -1.040754 0.41027009
-1.1956207 -0.89479256 0.7647379
0.4336873 -0.54976892 1.3504144
-0.9077847 -1.0560868 0.53504801
-0.31679073 -0.34389639 1.1148003
-0.11887699 -0.13663259 1.1538522
-0.70693302 -0.6449492 0.37498388
-0.07706482 -1.3195781 1.2068239
-0.37564456 -0.53131467 0.67859727
-0.96173179 -1.226378 1.3031684
0.27421114 -1.3790355 1.8558108
0.36076367 -0.39830831 1.3111225
0.30200374 -0.34993476 1.2244616
0.31666929 -0.3055 1.237902
-0.7352336 -1.1405863 0.59137052
-0.96113646 -0.79504198 0.63554269
0.14655167 -0.052904371 1.1566809
-0.34313902 -0.38277337 0.78203732
-1.5629866 -0.98676932 1.1356944
-0.7269209 -0.66106552 0.71727705
-0.95951986 -0.8351872 0.49302742
0.98446906 -0.15233922 1.3247399
-1.2986274 -0.94201213 0.16869771
-0.85887998 -0.93882638 0.4695937
-1.2300813 -1.0454373 0.34107757
0.013855453 -1.0123336 1.0602354
