# .PCD v0.7 - Point Cloud Data file format
VERSION 0.7
FIELDS x y z
SIZE 4 4 4
TYPE F F F
COUNT 1 1 1
WIDTH 129
HEIGHT 1
VIEWPOINT 0 0 0 1 0 0 0
POINTS 129
DATA ascii
-0.68801415 -0.24167092 0.16236284
-0.84474707 -0.68019879 0.41075352
-0.89929193 -0.25688794 0.24098286
-0.86509049 -0.32008582 0.27043429
-0.53259987 -0.3989532 0.44752851
-0.76134753 -0.30450341 0.30319753
-0.35815856 -0.81973982 0.85019112
-0.86871505 -0.32025433 0.27191469
-0.95683527 -0.17149526 0.35803527
-0.67883193 -0.37154508 0.38561967
-0.99888009 -0.45990679 0.21426061
-0.88461435 -0.31231365 0.27129218
-1.2814443 -0.54197502 0.39779866
-0.5389927 -0.14295843 0.26265144
-0.73990035 -0.67125213 0.51645255
-0.86370844 -0.20991489 0.49988019
-0.82341015 -0.6978569 0.42941338
-0.61859316 -0.060642086 0.21735039
-0.55852425 -0.14624596 0.35466442
-1.3129516 -0.72747016 0.49393529
-0.88666087 -0.25394464 0.33215624
-1.6376054 -0.34491652 0.86401618
-0.3973721 -0.8533746 0.65501368
-0.72343981 -0.26280898 1.2484789
-0.70871133 -0.34065479 0.28634977
-0.5798775 -0.13450098 0.26320794
-0.78219897 -0.73136604 0.48761097
-1.3463882 -0.82492226 0.39135897
-0.63967043 -0.42599562 0.47629443
-0.57283843 -0.18600357 0.48931551
-0.48056132 -0.2867102 0.37812451
-0.79121333 -0.47596076 0.13767084
-1.1226257 -0.44310787 0.26781347
-1.552617 -0.84436554 0.45673037
-0.27123436 -0.27597734 0.54182673
-0.33585715 -0.76787692 0.7541067
-0.52656835 -0.35349172 0.43511328
-0.67849112 -0.31152675 0.3999922
-0.32835317 -0.32765663 0.61389428
-0.32491377 -0.48086253 0.6558826
-0.50534081 -0.77070332 0.71489453
-0.52525854 -0.13792299 0.30279389
-0.736395 -0.53659588 0.29304641
-0.79468375 -0.19209637 0.36866808
-0.25996462 -0.34095296 0.54064304
-0.46434119 -0.44688725 0.44659609
-0.67966485 -0.19952695 0.50713497
-0.38643178 -0.3614122 0.46907622
-0.88039023 -0.25047025 0.32639161
-0.81856281 -0.26789078 0.3918823
-0.43412685 -0.3530587 0.4518607
-0.63865954 -0.32275257 0.42082125
-0.44099012 -0.16674943 0.44067359
-0.57798982 -0.28404093 0.43627048
-0.44350389 -0.35035598 0.48566538
-0.44496742 -0.26772279 0.53503674
-0.2736927 -0.69318867 0.69575548
-0.59808117 -0.21387346 0.51018316
-1.442263 -0.88911653 0.44045001
-1.644138 -0.54287291 0.38994625
-0.84468913 -0.23313709 0.26308489
-0.30951902 -0.35060894 0.54321396
-0.43347001 -0.38243464 0.46381518
-0.67924154 -0.3240419 0.38998675
-0.73264104 -0.79734349 0.48128292
-0.71340799 -0.79590058 0.53025353
-0.69006681 -0.27228504 0.39085594
-1.0048146 -0.79513544 0.50046092
-1.4053638 -0.87318909 0.38996652
-0.81875342 -0.27011228 0.44148836
-0.70751643 -0.30126843 0.32814622
-0.42298985 -0.34736419 0.48037553
-0.63951248 -0.14868186 0.55235535
-0.73635018 -0.32091674 0.35258827
-0.31920668 -0.2528345 0.56727785
-0.44655874 -0.25841314 0.51667738
-0.3048262 -0.78077525 0.81314862
-0.39587671 -0.31282875 0.56571108
-0.32341051 -0.3506009 0.54584372
-0.37074399 -0.28769189 0.49476862
-0.52401727 -0.44473204 0.2022582
-0.47588357 -0.39674515 0.50252491
-0.56837845 -0.35591477 0.43795055
-0.64915705 -0.27378425 0.46725723
-0.92483199 -0.336575 0.28251791
-0.61166817 -0.19625492 0.59387517
-0.39144507 -0.13195722 -0.039342254
-0.37382713 -0.2969707 0.41373736
-0.30102602 -0.64517713 0.61510086
-0.60337025 -0.17331131 0.46682426
-0.37259161 -0.15255602 0.46609867
-0.86145258 -0.20781538 0.35573277
-0.57530928 -0.12052587 0.26697591
-1.4037775 -0.64088106 0.40195775
-0.81875342 -0.27011228 0.44148836
-0.30671224 -0.60085434 0.57202035
-0.64645058 -0.3942112 0.43548369
-0.49910328 -0.38565931 0.4453769
-0.60952419 -0.35101551 0.56922948
-0.44164988 -0.33587992 0.47732797
-0.6990574 -0.29243264 0.35351977
-0.29106984 -0.34635305 0.58466482
-0.5908761 -0.40540698 0.41645885
-0.42094833 -0.12032817 0.33695272
-0.46837369 -0.11900636 0.19735903
-0.82460767 -0.25795868 0.51005965
-0.60698682 -0.13222271 0.066890091
-1.4258717 -0.79637915 0.567653
-0.37631023 -0.30729234 0.49133712
-0.88622552 -0.16593142 0.25249958
-0.70406276 -0.11558328 0.17645563
-0.63947654 -0.34275231 0.40392229
-0.2855916 -0.22587645 0.55527467
-0.31447157 -0.21379386 0.5124197
-0.29609105 -0.25937703 0.52830458
-0.32536286 -0.25117603 0.50987619
-1.0257925 -0.78612858 0.32132283
-0.97979832 -0.63555646 0.37619686
-0.19762999 -0.32731554 0.52745712
-0.27527079 -0.38155895 0.57022589
-0.42262006 -0.22803959 0.48207369
-0.97345054 -0.51206475 0.69952315
-0.86815715 -0.19904137 0.33753893
-0.66156238 -0.28469354 0.49585611
-0.61798185 -0.091438927 0.037669856
-1.4971263 -0.73512524 0.36997613
-0.90498221 -0.3152571 0.28355488
-0.91603124 -0.32756233 0.27896327
-0.76853436 -0.34186122 0.29133081
