# .PCD v0.7 - Point Cloud Data file format
VERSION 0.7
FIELDS x y z
SIZE 4 4 4
TYPE F F F
COUNT 1 1 1
WIDTH 165
HEIGHT 1
VIEWPOINT 0 0 0 1 0 0 0
POINTS 165
DATA ascii
-0.59022546 -1.2057121 0.057212032
-0.63533616 -0.78056616 0.36586192
-0.71714562 -0.5886851 0.16569173
-0.67927361 -0.82333559 0.35857934
-0.81525242 -0.64190537 0.0012561424
-0.63824213 -0.6656757 0.089586586
-0.47397038 -0.63027138 0.468207
-0.65139276 -0.99040258 0.005013918
-0.6382615 -1.2650141 -0.0010833291
-0.6318357 -0.69930816 0.23843318
-0.92988467 -1.2218668 0.92252409
-0.55194288 -0.68010658 0.12781249
-0.69249129 -0.65626746 0.088391803
-0.87424487 -0.63877827 -0.031335894
-0.80322886 -0.6257543 0.025888892
-0.95727664 -1.2505666 1.049078
-0.71046597 -1.0989863 0.06391792
-0.66011906 -0.59652942 0.064742312
-0.71879137 -0.69918668 -0.019686196
-0.53154105 -0.64833975 0.18894951
-0.73397815 -1.1233327 0.54490018
-0.62934381 -0.698753 0.062220104
-0.25265253 -1.238817 0.64981592
-1.0291008 -1.2245677 -0.18373683
-0.88582844 -1.0935671 -0.047671702
-0.56572634 -0.8726306 0.054789364
-0.86495614 -0.93023044 0.20717101
-1.0161612 -1.1372211 -0.11106223
-0.69938916 -1.0493932 0.052181721
-0.80738848 -1.0692537 0.068801612
-0.79494447 -1.1446639 0.016995417
-0.74613369 -1.1014884 0.020894805
-0.57453942 -1.1770407 0.068799712
-0.61696386 -1.1971325 0.01425933
-0.85609961 -0.68738472 -0.090783089
-0.39538085 -1.0719081 0.36105034
-0.29292318 -1.0396709 0.26935703
-0.4880631 -0.75066721 0.16319352
-0.31800023 -0.57748985 0.20694894
-0.47344175 -0.63699055 0.22377375
-0.44072959 -0.57293063 0.29409859
-0.73422116 -0.66576064 -0.0046766307
-0.87723368 -1.0496513 -0.04450798
-0.68971211 -0.69110602 0.027113382
-0.6989035 -0.81135291 0.37097687
-0.89781326 -0.59165019 -0.076020777
-0.72461629 -0.50964117 0.10864751
-0.63512266 -0.40349677 -0.062728383
-0.7181741 -0.58864546 0.16413793
-0.47113904 -0.6976974 0.18893342
-0.41470426 -0.72709984 0.2438014
-0.6221835 -0.74708617 0.061420016
-0.66252446 -0.74519753 0.073737085
-0.64203548 -0.54537541 0.3663063
-0.67410588 -0.67166281 0.098811209
-0.50543922 -0.55829531 0.26806617
-0.28293401 -1.1047528 0.30886739
-0.65671217 -1.1888765 0.068594314
-0.64206278 -1.3171684 0.21434547
-0.71830511 -0.96723539 -0.18763579
-0.92855155 -0.62654227 -0.054527286
-1.131205 -1.0876956 -0.13737004
-0.84507906 -1.1682895 -0.0010109155
-0.99031669 -1.1747801 -0.25153682
-0.12196739 -0.94802392 0.52944916
-0.67627043 -0.54445577 0.26367706
-0.84686744 -0.66566253 0.10775551
-0.3956472 -1.0400648 0.33611676
-0.34273705 -1.0739981 0.31018487
-1.0438033 -1.166563 -0.080266178
-1.1671501 -0.96713066 -0.19111201
-1.3851428 -0.90467715 -0.22343777
-0.61717951 -0.60827309 0.15100229
-0.35727423 -0.60057205 0.29900298
-0.65557992 -0.6791057 0.15068421
-0.57271916 -1.134275 0.1499103
-0.44659457 -1.2278582 0.30664092
-0.78415358 -1.1108425 -0.16567186
-1.2269568 -0.9453795 -0.2028064
-0.55194288 -0.68010658 0.12781249
-0.41976905 -0.6754511 0.28137508
-0.59874475 -0.73882896 0.35929057
-0.59803843 -1.23125 0.069071762
-0.60824621 -1.1713718 0.0067899646
-1.1944877 -1.2028978 -0.21899171
-1.0333033 -1.2073171 -0.241844
-0.66543281 -0.62828803 0.05892738
-0.82258308 -0.60948187 -0.048814062
-0.87362218 -0.63686943 -0.030966187
-0.85480469 -0.68373489 -0.085585177
-0.54458356 -0.73652256 0.12058009
-0.51021135 -0.6445654 0.18666787
-0.71591258 -0.89474976 -0.066759363
-0.63252902 -0.71922719 0.11586951
-0.49022028 -0.61750746 0.25042465
-0.55790836 -0.70240265 0.1356857
-0.72457498 -0.70681292 -0.01424824
-0.71785444 -0.58963549 0.1666951
-0.88394898 -0.69506443 0.037727818
-1.064407 -1.189237 -0.18897595
-0.54774868 -1.1777123 0.1701006
-1.0965753 -1.0455146 -0.12110437
-0.66194808 -0.69718885 0.042479169
-0.70782965 -0.683016 0.018619282
-0.816441 -1.1658894 -0.13876961
-0.39887539 -0.70222288 0.34651881
-0.68463844 -0.67573285 -0.01114509
-0.57987344 -0.92017651 0.37781349
-0.52651799 -0.69651848 0.15107557
-0.72204453 -0.8717652 0.48231557
-0.68184805 -0.49952903 0.13863151
-0.72617584 -0.70005071 0.019091696
-0.67587966 -0.71116763 0.15201786
-0.2424224 -0.78484941 0.27048868
-0.4145346 -0.55662507 0.27826276
-0.45879975 -0.75540155 0.19284971
-0.52086282 -0.56694192 0.28208268
-0.68165147 -1.3056122 0.27309138
-0.6221835 -0.74708617 0.061420016
-0.59239942 -1.1638108 0.088502586
-0.25344995 -0.8169381 0.28432208
-0.90755898 -0.41187406 -0.15252279
-1.2137698 -1.2026981 -0.21545467
-1.0095388 -1.1942372 -0.18683317
-0.69191825 -0.61177546 0.047909632
-0.82778317 -1.0728055 -0.031331055
-1.0558341 -1.011953 -0.32839963
-0.64740813 -0.4924444 0.16135539
-0.4400993 -0.58222544 0.2894069
-1.0377816 -1.2523512 -0.24935614
-0.64414287 -0.53944021 0.20180511
-0.66232908 -0.53133589 0.1868971
-0.80206674 -0.63583493 0.065634325
-0.90702999 -0.96514952 0.30329025
-0.26079327 -1.0960343 0.52346003
-0.2583046 -0.92513305 0.3574914
-0.65914291 -0.72442836 0.24735555
-0.76241082 -0.77270073 0.21428643
-1.1242054 -1.0682592 -0.16407652
-1.014304 -0.61197227 0.13611221
-0.80022836 -0.49386397 -0.086153403
-0.71638465 -0.71831256 0.18219052
-0.83119577 -0.68504888 -0.089883648
-0.66683793 -0.70612574 0.037111491
-0.43351737 -0.59171456 0.1835409
-0.52271593 -1.1594776 0.18431664
-0.56446183 -0.67289197 0.14706571
-0.72770983 -0.67955089 0.014376976
-0.64155895 -0.75211167 0.058610711
-0.85998112 -0.61343718 -0.039134476
-0.8501628 -0.66725516 -0.076781161
-0.98263747 -1.0117351 -0.1983864
-0.40528011 -0.59900457 0.26400834
-0.59022546 -1.2057121 0.057212032
-0.35854885 -0.68953311 0.30347893
-0.59870744 -0.72489589 0.12786496
-0.44669089 -0.66576105 0.20730144
-0.68247312 -0.620471 0.15834904
-0.38039085 -0.58696431 0.31468725
-0.22261773 -0.91650075 0.38279498
-0.82193238 -1.1009331 0.082582422
-0.46332654 -1.022077 0.22394025
-0.9175384 -0.39562416 -0.15124728
-0.8742438 -0.57159472 -0.077080332
-0.61463284 -1.1384382 0.11401688
