# .PCD v0.7 - Point Cloud Data file format
VERSION 0.7
FIELDS x y z
SIZE 4 4 4
TYPE F F F
COUNT 1 1 1
WIDTH 115
HEIGHT 1
VIEWPOINT 0 0 0 1 0 0 0
POINTS 115
DATA ascii
-0.26579082 0.1926184 0.7582826
0.20577909 -0.056078855 1.0549688
0.090943463 -0.14719987 1.0734726
-0.016960064 -0.095627934 1.0246319
0.31835228 0.34496328 0.98525363
0.0091361394 0.11253327 0.97044432
0.20213342 0.36530253 0.932118
0.27929354 -0.19528106 1.1064682
0.3203297 -0.2660884 1.13077
0.60520643 0.87165225 1.6576251
0.86409622 -0.23499541 1.5639881
0.097098619 0.029661378 1.0352978
0.30765018 -0.073978901 1.06986
0.23720133 -0.15429981 1.0853046
0.044012222 0.10807308 1.0072591
0.28549272 0.053384677 1.1752342
0.99733329 0.71169198 1.309294
0.49138436 0.059860025 1.0754027
0.13726814 -0.12200971 1.0811522
-0.41113845 -0.4353644 0.90698349
-0.24671039 -0.26402101 0.81031722
-0.023889191 -0.016465472 0.99231654
-0.087165788 -0.067475632 1.0045284
0.40524894 0.56405449 1.0124224
0.33546939 0.2178283 1.0090623
-0.052709647 0.21622463 0.9118951
0.024683489 -0.048609346 1.021264
0.23661013 -0.15500031 1.0859613
0.027259879 0.14066701 1.0441467
0.043644786 0.10923293 0.99991238
-0.10091809 -0.22085263 0.77471465
0.56775016 -0.27571952 1.1463649
0.39302236 0.33802509 1.0590532
0.29095054 0.33769202 1.0047531
0.30394974 0.3933672 0.98403221
0.21981972 0.34412608 0.99017221
0.0684212 0.28125432 0.90857679
0.20280614 0.18996131 0.9722513
-0.15454355 -0.22840369 0.82375276
0.49247605 0.38083243 1.0451924
1.0623598 -0.17857885 1.3791184
1.0655998 0.14855468 1.6537739
0.86409622 -0.23499541 1.5639881
0.40912715 -0.23760493 1.1343085
0.47236234 0.13724139 1.0368794
0.74607474 -0.064109519 1.2553158
-0.20032762 -0.13510878 0.92016673
0.13170151 -0.11911626 1.0613824
0.30096349 0.4463307 0.98433554
0.43593222 0.4810788 1.0145851
-0.40476254 -0.42738613 0.89362055
-0.23904498 0.1349353 0.61096525
0.044012222 0.10807308 1.0072591
0.054758254 -0.037131265 1.0326358
0.24652061 0.62272346 1.0587385
0.40524894 0.56405449 1.0124224
0.16226847 0.44033122 0.92670447
0.99814957 -0.18580657 1.3292699
0.031531729 -0.19077353 1.1120119
0.57005858 -0.33347529 1.1507691
0.25800884 -0.02035626 1.0442258
0.20537609 -0.056063652 1.0504074
0.30765018 -0.073978901 1.06986
0.23101947 -0.096925303 1.0690668
-0.059780866 0.22743708 0.94931924
0.3266421 0.35420826 1.0130349
0.25811237 0.29454234 0.96313238
0.36938637 0.26828191 0.99591756
0.12317194 0.19295342 0.97125304
0.077382088 0.20204712 1.1130065
-0.12819636 0.3047969 0.8474825
0.14577024 0.067146644 1.0718507
0.22988722 0.031354904 0.98154664
0.30099955 0.39066115 0.97213024
0.21636306 0.3346892 0.97056127
-0.069383845 -0.32960531 0.94030988
0.15138057 0.38722903 0.94332856
0.18040219 0.29253468 0.95517015
0.16882767 0.25092474 0.94537818
0.23787965 0.22926955 0.99448311
1.1524764 0.81611097 1.5290273
0.74927157 0.32590503 1.2754413
0.50124395 0.38957563 1.0691499
0.44553521 0.27781644 1.0649959
0.74319166 -0.4764415 1.5467863
0.63447398 -0.66947931 1.5257083
0.77632576 -0.22606196 1.3812681
0.39742354 0.053305048 1.0581945
0.60039365 -0.069930762 1.2408296
-0.20796661 -0.18413892 0.95075113
-0.052205876 0.0023880776 0.99704373
0.22723505 -0.44664565 1.1576928
0.4117201 -0.5136646 1.2586389
0.3395521 -0.76384073 1.4397306
-0.099464796 -0.3382307 0.62896359
1.1492444 0.81817591 1.8239115
0.29095054 0.33769202 1.0047531
0.35174227 0.23440184 0.99752325
0.043644786 0.10923293 0.99991238
-0.0096434569 0.39738774 0.88797152
0.20388846 0.36768231 0.93206841
-0.060726691 -0.22243528 0.50012028
0.74607474 -0.064109519 1.2553158
0.15138057 0.38722903 0.94332856
0.72701079 0.31673178 1.2372301
0.13054571 0.4417322 0.91866863
0.30096349 0.4463307 0.98433554
1.4756864 0.62773144 1.8745642
0.43879458 -0.27720422 1.1381332
0.26433334 -0.020644341 1.0799648
0.39221823 -0.13053845 1.0729866
0.40477198 -0.24325527 1.1304519
-0.2637392 -0.038892716 0.77479708
-0.053654034 0.0029983278 0.98908985
0.43286854 -0.4916907 1.2043989
