# .PCD v0.7 - Point Cloud Data file format
VERSION 0.7
FIELDS x y z
SIZE 4 4 4
TYPE F F F
COUNT 1 1 1
WIDTH 149
HEIGHT 1
VIEWPOINT 0 0 0 1 0 0 0
POINTS 149
DATA ascii
-0.57197553 -0.63614666 0.24239025
-0.56087136 -1.2225876 0.23567064
-0.64203548 -0.54537541 0.3663063
-0.17787264 -0.83248287 0.45316291
-0.63533616 -0.78056616 0.36586192
-0.39243525 -0.50386351 0.38825417
-0.25265253 -1.238817 0.64981592
-0.72638291 -1.1302037 0.035026796
-0.92988467 -1.2218668 0.92252409
-0.45121101 -0.52215463 0.23431565
-0.64044118 -0.50431597 0.21156086
-0.51097834 -0.46879286 0.42985618
-0.38128528 -0.58983922 0.32295695
-0.1199033 -0.82852405 0.44878331
-0.71879137 -0.69918668 -0.019686196
-0.38097921 -0.51796055 0.37040076
-0.42472914 -0.6595518 0.38269755
-0.12966281 -0.96147513 0.47150397
-0.47113904 -0.6976974 0.18893342
-0.50618029 -0.57627362 0.16511923
-0.65998858 -0.49676147 0.18938194
-0.31800023 -0.57748985 0.20694894
-0.4127017 -0.71187913 -0.0007214892
-0.33805436 -0.60211408 0.31281966
-0.98124844 -0.94777346 -0.15464468
-0.71046597 -1.0989863 0.06391792
-0.64206278 -1.3171684 0.21434547
-0.84765619 -1.1012286 -0.027974749
-0.59803843 -1.23125 0.069071762
-0.66232908 -0.53133589 0.1868971
-0.8435387 -0.53309298 0.032306761
-0.76560092 -0.66360486 -0.016126625
-0.70960116 -0.49618772 0.19006826
-0.30978963 -0.55044019 0.35365856
-0.85709512 -0.65034521 -0.054389175
-0.44072959 -0.57293063 0.29409859
-0.45613956 -0.57164782 0.29136088
-0.82167614 -0.59525061 0.7334643
-0.51478064 -0.46408457 0.36848623
-0.51772612 -0.56062043 0.27071872
-0.35104838 -1.0589662 0.39626864
-0.23629291 -0.88430983 0.32783777
-0.56220078 -0.72197783 0.11935149
-0.54784739 -0.47230473 0.25106484
-0.60972178 -0.5891397 0.1417136
-0.95727664 -1.2505666 1.049078
-0.41919237 -0.58053529 0.33214656
-0.25044876 -0.93929923 0.42619583
-0.39538085 -1.0719081 0.36105034
-0.25344995 -0.8169381 0.28432208
-0.16476548 -0.76363462 0.1560306
-0.56724817 -0.75287026 0.063896656
-0.6594671 -0.69231206 0.11563173
-0.6255042 -0.61643565 0.15728575
-0.78768951 -0.61231905 0.35404482
-0.66252446 -0.74519753 0.073737085
-0.84686744 -0.66566253 0.10775551
-1.0965753 -1.0455146 -0.12110437
-0.84507906 -1.1682895 -0.0010109155
-0.49122122 -0.44575828 0.37966672
-0.53559136 -1.2625436 0.37613201
-0.5473631 -1.1587404 0.16044445
-0.85537237 -0.66416728 -0.1001671
-0.57987344 -0.92017651 0.37781349
-0.99771696 -1.0806992 -0.091427311
-0.87723368 -1.0496513 -0.04450798
-0.17509988 -0.83452517 0.45038375
-0.22354306 -0.98032171 0.36989611
-0.61911982 -0.78286797 -0.063910805
-0.79653233 -1.1037767 -0.021305064
-0.87068218 -0.68795675 -0.085430585
-0.64414287 -0.53944021 0.20180511
-0.66232908 -0.53133589 0.1868971
-0.61578965 -0.65101451 0.24345966
-0.52497792 -0.54968435 0.24558787
-0.35854885 -0.68953311 0.30347893
-0.56691438 -0.70659125 0.15007763
-0.96471226 -0.60084248 -0.013192882
-0.27828464 -0.7222141 0.42912117
-0.59874475 -0.73882896 0.35929057
-0.6755451 -0.54519981 0.26569888
-0.26698604 -0.9582513 0.42967889
-0.27055362 -1.0051064 0.41267848
-0.55351973 -0.4699342 0.21497951
-0.33537644 -0.66187376 0.32270205
-0.46289107 -0.41306233 0.30557173
-0.46759242 -0.4349426 0.36739811
-0.47898504 -0.42977425 0.26434809
-0.25715214 -0.56331557 0.42335469
-0.5139789 -0.75498408 0.21506128
-0.54458356 -0.73652256 0.12058009
-0.4880631 -0.75066721 0.16319352
-0.49022028 -0.61750746 0.25042465
-1.4349682 -1.8066584 1.0654008
-0.41137451 -0.71887535 0.23812078
-0.29259151 -0.46721292 0.39632434
-0.71722037 -0.6490823 0.16697739
-0.70319611 -0.61195827 0.077690616
-0.39243525 -0.50386351 0.38825417
-0.44724718 -0.52650326 0.33186176
-0.24504355 -1.1351787 0.54092425
-0.5039137 -0.73159832 0.2444247
-0.67942983 -0.54749966 0.25809366
-0.3760924 -0.51777965 0.32105854
-0.82927269 -0.66072541 -0.011761279
-0.64155895 -0.75211167 0.058610711
-0.8132835 -0.63740575 0.12030911
0.029174265 -1.5254385 1.4469088
-0.22997344 -0.9994182 0.46346736
-0.26079327 -1.0960343 0.52346003
-0.20772456 -0.99709231 0.41698557
-0.8974964 -1.1045457 -0.042656738
0.045463234 -1.0101476 1.0281609
-0.62934381 -0.698753 0.062220104
-0.64494914 -0.53725308 0.19740722
-0.38039085 -0.58696431 0.31468725
-0.45197219 -0.58776557 0.19068816
-0.78212494 -0.46363518 -0.12838511
-0.2583046 -0.92513305 0.3574914
-0.56087136 -1.2225876 0.23567064
-0.52271593 -1.1594776 0.18431664
-0.74627256 -0.4974449 0.10698217
-0.57905495 -0.47408143 0.19791983
-0.23661354 -0.4911114 0.48339295
-0.85208684 -0.64532584 -0.022030184
-0.37339121 -0.63569653 0.30324489
-0.83119577 -0.68504888 -0.089883648
-0.80022836 -0.49386397 -0.086153403
-0.482593 -0.66869318 0.19884218
-0.76560092 -0.66360486 -0.016126625
-0.4015477 -0.65312475 0.25632355
-0.64740813 -0.4924444 0.16135539
-0.097177535 -1.2895985 0.81285685
-0.67948335 -0.67154884 0.039602928
-0.57271916 -1.134275 0.1499103
-0.59846079 -1.1252929 0.12560888
-0.6221835 -0.74708617 0.061420016
-0.53109318 -0.46795985 0.29883859
-0.54673344 -0.47040761 0.25473815
-0.71638465 -0.71831256 0.18219052
-0.74634421 -0.90553844 0.42830881
-0.74299717 -0.67219186 -0.014180926
-0.66008991 -0.67934918 0.065075487
-0.72457498 -0.70681292 -0.01424824
-0.41932335 -0.49370515 0.3159005
-0.35727423 -0.60057205 0.29900298
-0.39887539 -0.70222288 0.34651881
-0.63321161 -0.59664947 0.17455922
-0.62011486 -0.41663212 0.11692388
