# .PCD v0.7 - Point Cloud Data file format
VERSION 0.7
FIELDS x y z
SIZE 4 4 4
TYPE F F F
COUNT 1 1 1
WIDTH 163
HEIGHT 1
VIEWPOINT 0 0 0 1 0 0 0
POINTS 163
DATA ascii
-1.1293699 -1.5656615 0.33911276
-1.0539528 -1.7854271 0.38851738
-0.94182348 -1.0694928 0.53385627
-1.2825432 -1.1581894 0.092777133
-1.3077985 -1.1056156 0.12468453
-0.88680631 -1.1501482 0.38422441
-1.7694981 -1.8886508 0.05077105
-1.6485019 -1.79142 0.11204655
-0.757258 -1.8022996 0.57075399
-1.7057761 -1.7545434 0.11577915
-0.87109745 -1.8155398 0.25691131
-0.98616487 -0.82509643 0.47064742
-1.6421329 -2.1208761 0.056133211
-1.2931994 -1.0739508 0.41389021
-0.80374026 -1.7793818 0.55381066
-1.0718944 -1.7789311 0.32725975
-0.80553144 -2.0304618 0.79933465
-0.57124931 -1.5768051 0.55667281
-0.98410863 -1.108256 0.53534305
-0.32862049 -1.6966197 0.773435
-1.3004133 -1.6499507 0.036540758
-0.96113646 -0.79504198 0.63554269
-1.0263847 -1.1711848 0.61830378
-1.3055965 -1.101244 0.12127376
-1.1193713 -1.7567381 0.41538081
-0.51119572 -1.5671176 0.75099492
-0.88787913 -1.6397934 0.49050918
-1.1706882 -1.9081491 0.38029215
-0.57159162 -1.5609735 0.54060972
-1.3997791 -1.0219785 0.26746845
-1.5234629 -1.7098852 0.038835783
-1.0643729 -1.1489687 0.2346361
-0.85887998 -0.93882638 0.4695937
-1.1458203 -1.7867796 0.34953195
-1.3608286 -1.0785559 0.19112474
-1.0136962 -1.0537763 0.30545157
-0.46904811 -1.0653733 0.71886742
-0.77241391 -1.1599962 0.55983478
-0.90566391 -1.0995213 0.93825388
-0.89430672 -0.98704094 0.55646974
-0.60284197 -0.90276998 0.63845098
-1.1188654 -1.1019741 0.21401127
-0.51838535 -0.85589588 0.70504576
-0.665254 -0.96533221 0.50713527
-1.0297818 -0.74025023 0.13130113
-0.97845352 -0.64988059 -0.05779653
-1.3740811 -1.6878304 1.8048935
-0.94355828 -1.148487 0.81336874
-1.0016953 -1.3366011 1.0402552
-0.87678003 -1.0747163 0.67484206
-0.959804 -1.0752575 0.51480818
-0.78518605 -1.8158954 0.51577777
-1.4382372 -1.8373035 -0.046165187
-1.2133821 -1.879747 0.13006325
-1.2013284 -0.99222881 0.13980883
-1.6240537 -1.6792881 0.1143722
-0.89943016 -0.97412813 0.47069439
-0.72756159 -0.85543811 0.63146996
-0.16027546 -1.6364868 0.98187262
-0.35471293 -1.6722406 0.75539762
-1.5431569 -2.0353804 0.17445298
-1.4807105 -0.76658732 -0.047618322
-0.23562971 -1.7639154 1.2328932
-0.83871877 -1.8305244 0.46698478
-1.3096241 -1.1011417 0.26678544
-0.9604876 -0.83914703 0.49973449
-0.91052496 -0.77350414 0.47226763
-0.9077847 -1.0560868 0.53504801
-0.76527721 -1.1678219 0.41339347
-0.9581461 -1.1644871 0.31330165
-1.3864397 -1.7379637 -0.076021872
-1.7058465 -1.7077221 0.11962055
-1.804366 -1.9745728 0.073651582
-1.5049174 -1.8279335 0.010803131
-0.63331234 -1.0542202 0.56177717
-0.43165043 -0.94334495 0.58053929
-1.1604588 -1.0881051 0.17821932
-1.3094285 -0.99167961 0.14044139
-1.1585696 -1.1262211 0.18178017
-0.87327302 -1.0546255 0.58463353
-1.3111211 -1.1503937 0.088062122
-0.80889893 -1.0416917 0.41133413
-1.0315752 -1.0277874 0.30455315
-1.0936549 -1.1582886 0.19726954
-1.012401 -0.77444398 0.21704181
-1.8845632 -1.6069484 0.012829267
-1.437272 -1.6844441 0.1487087
-1.331911 -1.7733417 0.27848122
-1.2361299 -0.82422292 -0.055727668
-0.95557678 -1.1791255 0.38769877
-1.2346112 -1.4109216 0.57789516
-0.92899108 -1.2114165 0.33499262
-1.5857199 -1.6760546 0.17975642
-1.0800585 -1.7342881 0.35439846
-0.79801691 -1.7510488 0.53942281
-0.75777304 -1.7962954 0.57228196
-0.84845507 -1.7807109 0.52092963
-0.97440237 -1.0832729 0.46601921
-1.8372993 -2.6473711 3.5386696
-0.51166075 -0.87161469 0.65000051
-0.53100896 -0.86286914 0.46531409
-0.47268224 -1.0821695 0.65508431
-1.3276871 -1.0594831 0.15240641
-1.0433724 -1.1150607 0.48674855
-0.65878743 -1.1473359 0.7279619
-1.0231317 -0.98629975 0.46375918
-1.2344599 -1.0404272 0.2732614
-0.52049297 -1.0165228 0.59133911
-0.74102724 -1.8487209 0.77965182
-1.0785285 -0.93008947 0.46624279
-1.6738291 -1.7779894 0.016912235
-1.5350122 -1.9842356 0.11082231
-1.5448604 -1.6290132 0.0040425593
-1.4032156 -0.90332812 0.15591089
-1.3480238 -1.1826148 0.076000355
-1.3826083 -1.0622603 0.16078873
-0.79121065 -1.2863861 0.23838626
-1.4549534 -0.71698523 -0.075075582
-0.94735074 -1.1405153 0.83164114
-0.646415 -0.99008554 0.57583863
-0.52170438 -1.5467906 0.81521696
-1.2536788 -1.7612509 0.29834086
-1.0283992 -0.80602282 0.376111
-1.0761135 -0.92915475 0.46483395
-0.56078357 -1.0067906 0.6654036
-1.0295366 -0.87490493 0.53552115
-1.5218227 -1.9998285 0.0068699354
-0.95951986 -0.8351872 0.49302742
-1.0723191 -0.8207919 0.43231902
-1.0336319 -1.0120617 0.36284745
-1.6010289 -1.6986369 0.19110103
-1.5175288 -1.9560519 0.097563908
-0.68384409 -1.0336024 0.49638671
-2.2200849 -1.6010679 0.036886882
-0.80374026 -1.7793818 0.55381066
-0.89478505 -1.0796767 0.39914444
-0.95466477 -1.2182814 0.32320917
-0.30478355 -1.5475222 0.95197016
-1.5307739 -1.0432661 0.21418709
-1.727897 -1.8813126 -0.15474355
-1.2929507 -1.0767033 0.42215195
-1.4676515 -1.839644 -0.023097891
-0.26157072 -1.5767615 1.0792944
-1.1042306 -1.0777705 0.26399246
-1.003855 -1.6851465 0.38715833
-1.3093787 -1.0812799 0.18865438
-1.3844302 -1.0882481 0.049815293
-1.2693729 -1.0775099 0.31596047
-1.2825432 -1.1581894 0.092777133
-1.1623635 -1.8227034 0.27776363
-1.1218386 -1.4859792 1.1143999
-1.0281631 -1.1694601 0.6084187
-1.6033816 -1.9269533 0.070779197
-1.118039 -1.1015857 0.21570911
-1.2284061 -1.0366322 0.16246966
-0.75281322 -0.86037391 0.36984062
-1.0901364 -1.0680257 0.32103726
-0.85203952 -1.1031944 0.40856564
-0.17153519 -1.3214873 0.8232798
-0.84925294 -1.1852572 0.37490162
-1.185995 -0.82043618 0.15082146
-1.4873931 -1.5167967 0.045877997
-1.4937928 -1.7385993 0.20589182
