# .PCD v0.7 - Point Cloud Data file format
VERSION 0.7
FIELDS x y z
SIZE 4 4 4
TYPE F F F
COUNT 1 1 1
WIDTH 109
HEIGHT 1
VIEWPOINT 0 0 0 1 0 0 0
POINTS 109
DATA ascii
-1.2578777 -1.0584675 -0.0047554099
-1.3397835 -1.1180331 0.28193334
-1.3543736 -1.7425145 0.24467935
-1.722092 -0.99160767 1.1800945
-2.4283867 -0.88246554 0.39560571
-1.6895678 -0.64105135 -0.12334764
-0.95327806 -1.093491 0.61663204
-2.109756 -0.65592664 0.018582184
-1.5082012 -1.8784254 0.28133848
-2.5151403 -2.3070145 0.30669871
-1.6421329 -2.1208761 0.056133211
-1.2144867 -1.0087454 0.18016821
-1.3510649 -1.0703194 0.18251085
-1.3055965 -1.101244 0.12127376
-1.7694981 -1.8886508 0.05077105
-1.2825432 -1.1581894 0.092777133
-1.3348014 -1.0307317 0.16449632
-1.3687189 -1.0480484 0.12783198
-1.686831 -0.44192562 -0.15083513
-1.3209157 -1.1627932 0.096383892
-1.6520051 -0.36882004 -0.079641983
-1.655058 -0.6613493 -0.097042337
-0.94182348 -1.0694928 0.53385627
-1.6292944 -0.36990464 -0.087316506
-1.7673553 -0.59598911 -0.16639626
-1.8106831 -1.6459448 0.054524597
-0.97693157 -1.0213333 0.29131976
-1.3868413 -0.62611532 -0.027778029
-1.7910852 -0.55457032 -0.18523677
-1.3690709 -0.99823695 0.23940474
-1.6485019 -1.79142 0.11204655
-1.7057761 -1.7545434 0.11577915
-1.7079366 -0.74282104 -0.16898906
-1.3026512 -1.755699 0.21472107
-1.6232066 -2.0073466 0.27362043
-1.3183764 -1.704101 0.27056155
-1.1318121 -1.1104602 0.19579932
-1.3139751 -1.1300607 0.11189411
-1.1312306 -0.67613125 0.12689956
-1.003708 -0.73799026 0.16457213
-2.2200849 -1.6010679 0.036886882
-1.6350199 -1.7755586 0.10621793
-1.0750259 -1.7529094 0.28054756
-1.0425959 -1.7396895 0.43531519
-1.4077584 -1.1122031 0.065225087
-1.2793583 -1.0408347 0.14792643
-1.2881333 -0.48899677 -0.016894151
-1.2578777 -1.0584675 -0.0047554099
-1.5041617 -0.57790595 -0.12183348
-1.8882527 -0.48259258 -0.16808717
-1.3049188 -0.98595637 0.24736294
-1.6267956 -0.54105258 -0.089555599
-1.5055391 -0.72234362 -0.092873409
-1.7830093 -0.6855073 -0.091004297
-0.98410863 -1.108256 0.53534305
-1.0174149 -1.1348176 0.55183989
-1.2215052 -1.0072927 0.29123211
-1.6153539 -0.52181166 -0.15053721
-1.703864 -0.64697713 -0.1444501
-1.0747368 -0.8350296 0.41314149
-1.5234629 -1.7098852 0.038835783
-1.6651396 -1.8004782 0.022603242
-1.188658 -1.8617886 0.088031009
-1.4687191 -0.6659376 -0.24854845
-1.929564 -1.1133525 -0.19647479
-1.1553869 -0.58083707 -0.28111312
-1.4032156 -0.90332812 0.15591089
-2.0901463 -0.56404048 -0.181417
-1.431106 -1.6207381 0.13774231
-1.4072864 -1.6574029 0.20243804
-1.4937928 -1.7385993 0.20589182
-1.1706882 -1.9081491 0.38029215
-1.1975036 -1.7846586 0.33771506
-1.3276871 -1.0594831 0.15240641
-1.0802879 -1.1779193 0.56782615
-1.2469978 -0.71515256 0.0010384078
-1.5593921 -0.89416367 -0.37310579
-1.5857199 -1.6760546 0.17975642
-1.5997378 -1.6448078 0.13560101
-1.5008409 -1.7160079 0.21595357
-1.1188654 -1.1019741 0.21401127
-0.95772761 -0.88209432 0.53496397
-0.97845352 -0.64988059 -0.05779653
-2.1071033 -0.96115488 1.2491081
-1.1088454 -0.99234259 0.10335793
-1.6394475 -1.7466123 -0.16439722
-1.2825432 -1.1581894 0.092777133
-2.1135006 -1.5062034 -0.015759829
-1.0863342 -0.45731789 -0.4159503
-1.4858762 -0.93303263 0.11748769
-1.2896677 -0.59843427 -0.21854918
-1.7823027 -0.62339592 -0.17683394
-0.93384659 -2.1172822 0.40352327
-1.3611135 -0.78265595 -0.036318164
-2.0302055 -1.8986468 0.15663083
-1.2361299 -0.82422292 -0.055727668
-1.2752457 -0.5624553 0.090739474
-1.3397835 -1.1180331 0.28193334
-1.0281631 -1.1694601 0.6084187
-1.8459604 -1.5562382 0.016511666
-1.5360498 -1.843546 0.063257396
-1.6033816 -1.9269533 0.070779197
-1.4571645 -1.8019239 0.24514097
-1.6925 -0.62220734 -0.1476932
-0.93313777 -1.1296741 0.31387007
-1.1250165 -1.1020609 0.18990646
-0.97440237 -1.0832729 0.46601921
-0.94709647 -0.73478001 0.15966178
-0.87957126 -1.0699081 0.75280899
