# .PCD v0.7 - Point Cloud Data file format
VERSION 0.7
FIELDS x y z
SIZE 4 4 4
TYPE F F F
COUNT 1 1 1
WIDTH 166
HEIGHT 1
VIEWPOINT 0 0 0 1 0 0 0
POINTS 166
DATA ascii
-0.82199246 -0.65443808 0.086423911
-0.56087136 -1.2225876 0.23567064
-0.78455478 -1.0303385 0.57511055
-0.63824213 -0.6656757 0.089586586
-0.70233715 -0.81596255 0.37526646
-0.88582844 -1.0935671 -0.047671702
-0.8974964 -1.1045457 -0.042656738
-0.4127017 -0.71187913 -0.0007214892
-0.84765619 -1.1012286 -0.027974749
-0.67274201 -1.1144445 0.085171804
-0.72638291 -1.1302037 0.035026796
-0.98404872 -1.1810267 -0.16251829
-0.47344175 -0.63699055 0.22377375
-0.57197553 -0.63614666 0.24239025
-0.42472914 -0.6595518 0.38269755
-0.80807936 -1.0263331 0.53253764
-0.80322886 -0.6257543 0.025888892
-0.87424487 -0.63877827 -0.031335894
-0.85555691 -0.60552669 -0.071506478
-0.63512266 -0.40349677 -0.062728383
-0.65247953 -0.65756381 0.11412597
-0.561544 -0.62032402 0.078495637
-0.28293401 -1.1047528 0.30886739
-0.57574767 -1.1471636 0.15434046
-0.39768177 -1.1035318 0.35261276
-1.131205 -1.0876956 -0.13737004
-0.45448986 -0.67920685 0.27945691
-0.29292318 -1.0396709 0.26935703
-0.97356546 -1.1112721 -0.072920598
-0.50341094 -0.64926678 0.20962378
-0.60972178 -0.5891397 0.1417136
-0.53602844 -0.45917082 0.22063327
-0.64203548 -0.54537541 0.3663063
-0.5473631 -1.1587404 0.16044445
-0.64494914 -0.53725308 0.19740722
-0.65139276 -0.99040258 0.005013918
-0.61696386 -1.1971325 0.01425933
-0.4768261 -0.394658 -0.18806943
-0.8393392 -0.69037193 -0.087615788
-1.0291008 -1.2245677 -0.18373683
-1.0291008 -1.2245677 -0.18373683
-1.0333033 -1.2073171 -0.241844
-0.28505662 -1.1243627 0.49405128
-0.79653233 -1.1037767 -0.021305064
-0.28293401 -1.1047528 0.30886739
-0.44072959 -0.57293063 0.29409859
-0.58560032 -0.57895529 0.14177646
-0.51244456 -0.69948375 0.15971908
-0.41470426 -0.72709984 0.2438014
-0.73397815 -1.1233327 0.54490018
-0.6453746 -0.51524496 0.22378211
-0.7181741 -0.58864546 0.16413793
-0.6594671 -0.69231206 0.11563173
-0.66252446 -0.74519753 0.073737085
-0.65404814 -0.74163198 0.17106184
-0.56691438 -0.70659125 0.15007763
-1.0614852 -1.1846271 -0.18787241
-0.25265253 -1.238817 0.64981592
-0.34256625 -1.2285982 0.60843843
-0.64206278 -1.3171684 0.21434547
-0.69938916 -1.0493932 0.052181721
-0.43190947 -1.0553277 0.20736665
-0.38292736 -0.96169388 0.26812741
-0.27055362 -1.0051064 0.41267848
-0.84686744 -0.66566253 0.10775551
-0.2424224 -0.78484941 0.27048868
-0.6795066 -0.3728385 -0.11574228
-0.78212494 -0.46363518 -0.12838511
-0.87362218 -0.63686943 -0.030966187
-0.6952619 -0.5362879 0.25542846
-0.38128528 -0.58983922 0.32295695
-0.40459597 -0.54379094 0.25132796
-0.482593 -0.66869318 0.19884218
-0.71785444 -0.58963549 0.1666951
-0.34167761 -0.58274382 0.32122654
-0.4880631 -0.75066721 0.16319352
-0.90015137 -0.40886655 -0.15537459
-0.55351973 -0.4699342 0.21497951
-0.67627043 -0.54445577 0.26367706
-0.74777186 -0.68328661 0.080258563
-0.66543281 -0.62828803 0.05892738
-0.46332654 -1.022077 0.22394025
-0.44469115 -0.52840316 0.31968224
-0.7447058 -1.0534395 -0.0025268202
-0.816441 -1.1658894 -0.13876961
-1.0095388 -1.1942372 -0.18683317
-1.064407 -1.189237 -0.18897595
-0.99031669 -1.1747801 -0.25153682
-0.64414287 -0.53944021 0.20180511
-0.38509998 -0.58303398 0.34557402
-0.64373416 -0.55233812 0.19425516
-0.56220078 -0.72197783 0.11935149
-0.31862885 -0.66369867 0.32127073
-0.72457498 -0.70681292 -0.01424824
-0.45894772 -0.35716248 -0.021754323
-0.51910841 -0.56250632 0.26421803
-0.52271593 -1.1594776 0.18431664
-0.57453942 -1.1770407 0.068799712
-0.87100148 -0.56970179 -0.08671201
-0.9347775 -0.42706704 -0.13335316
-0.5522306 -0.67448181 0.17247261
-0.72770983 -0.67955089 0.014376976
-0.57827282 -1.257454 0.033022895
-1.0562437 -1.1653813 -0.12302159
-0.99771696 -1.0806992 -0.091427311
-0.62714696 -1.1348032 0.097131215
-0.46574917 -0.64195067 0.20425017
-0.82445127 -1.0239482 -0.03759608
-0.64962626 -0.55489677 0.18010242
-0.79705107 -0.95126694 0.44045925
-0.14188719 -0.82431382 0.54383284
-0.54784739 -0.47230473 0.25106484
-0.23629291 -0.88430983 0.32783777
-0.79494447 -1.1446639 0.016995417
-0.57271916 -1.134275 0.1499103
-0.60953695 -0.72987771 0.073571496
-0.2583046 -0.92513305 0.3574914
-0.81525242 -0.64190537 0.0012561424
-0.98263747 -1.0117351 -0.1983864
-1.0377816 -1.2523512 -0.24935614
-0.77962744 -0.70396423 -0.013859785
-0.638816 -0.7146042 0.05423867
-0.55135846 -0.40543348 -0.27270204
-1.3851428 -0.90467715 -0.22343777
-0.85496134 -0.67592287 -0.072579928
-0.82193238 -1.1009331 0.082582422
-0.3956472 -1.0400648 0.33611676
-0.73803979 -0.67626441 0.014686378
-0.84170896 -0.67230934 -0.052985564
-0.85091746 -0.33157229 -0.006455685
-0.74450976 -0.52095777 0.18785372
-0.40528011 -0.59900457 0.26400834
-0.90589184 -0.39792955 -0.083898164
-1.3532968 -1.0554044 1.529814
-0.6221835 -0.74708617 0.061420016
-0.66008991 -0.67934918 0.065075487
-0.86642623 -0.56709003 -0.079242371
-0.90047604 -0.56280756 -0.099832185
-0.57905495 -0.47408143 0.19791983
-0.6755451 -0.54519981 0.26569888
-0.80206674 -0.63583493 0.065634325
-0.45197219 -0.58776557 0.19068816
-0.64414287 -0.53944021 0.20180511
-0.76560092 -0.66360486 -0.016126625
-0.84904176 -0.64903116 0.37372974
-0.72617584 -0.70005071 0.019091696
-0.63252902 -0.71922719 0.11586951
-0.68278188 -0.75597441 0.27017069
-0.85976523 -0.62912101 -0.048701018
-0.55421436 -0.72415477 0.13110551
-0.74242795 -0.5097723 0.14906102
-0.35727423 -0.60057205 0.29900298
-0.50171316 -0.554286 0.26089448
-0.27828464 -0.7222141 0.42912117
-0.90312076 -0.59751117 -0.0040756301
-0.80022836 -0.49386397 -0.086153403
-0.87068218 -0.68795675 -0.085430585
-0.73286152 -0.53896087 0.23688975
-0.68463844 -0.67573285 -0.01114509
-0.8974964 -1.1045457 -0.042656738
-0.59874475 -0.73882896 0.35929057
-0.72204453 -0.8717652 0.48231557
-1.0243679 -0.91607606 -0.17161369
-0.64155895 -0.75211167 0.058610711
-0.44072959 -0.57293063 0.29409859
-0.61600399 -0.67038935 0.11026081
