# .PCD v0.7 - Point Cloud Data file format
VERSION 0.7
FIELDS x y z
SIZE 4 4 4
TYPE F F F
COUNT 1 1 1
WIDTH 75
HEIGHT 1
VIEWPOINT 0 0 0 1 0 0 0
POINTS 75
DATA ascii
-0.28387156 -0.31083733 1.0520689
0.34794173 -1.0581477 1.5767779
-0.40941134 -0.31019402 0.83821702
-0.014033484 -0.37019908 1.2132573
-1.1663603 -1.6225812 0.74404067
0.28679243 -0.49756905 1.2253753
-0.37962896 -0.35576379 0.88142556
-0.43931863 -0.57763863 0.7111308
-0.73361045 -1.0967164 0.85239619
-0.64813513 -0.77033961 0.91018236
-0.54740888 -0.66493356 0.81450754
-0.30055705 -0.96454495 1.0450764
-0.48658302 -0.26372266 0.68120337
0.26951805 -0.36213163 1.2493799
0.20049156 -0.40656891 1.2232997
-0.55950433 -0.66312349 0.36984506
-0.32814717 -0.26142108 1.0970899
-0.19251873 -0.26509064 1.09339
-0.12928328 -0.61451626 1.4946197
-0.3479605 -1.3620518 1.9292996
-0.50640202 -0.63221502 0.68678999
-0.57060432 -0.33076841 0.80885255
-0.40867829 -0.24782652 0.79752898
0.091327243 -0.40679023 1.1889361
-0.1667417 -0.27668169 1.1100664
0.27079442 -1.0652897 1.3853517
0.15648313 -1.0650278 1.2770844
-0.77551794 -0.86172235 1.2315927
-0.74837941 -0.86578089 1.1597028
-0.28090513 -0.31220138 1.0389667
-0.33786014 -1.0201921 1.0288279
-0.37513918 -1.230722 1.4480804
-0.24956647 -0.81559932 0.92300487
-0.40562046 -0.14933594 0.77506417
-0.69880968 -1.1948694 0.69573295
-0.55462193 -1.0160338 1.4713492
-0.4757365 -0.12851927 0.81043768
-0.4212189 -0.25091335 0.83455271
-0.40413278 -0.30929524 0.82201821
0.12302913 -0.36130437 1.2040578
-0.014033484 -0.37019908 1.2132573
0.28679243 -0.49756905 1.2253753
0.21534215 -0.31541774 1.1947914
0.20049156 -0.40656891 1.2232997
-0.87481153 -1.121259 1.6544311
-0.88367176 -1.1369261 1.6839497
-0.40226576 -0.53522307 0.98959172
-0.44057956 -0.57420748 0.80815041
-0.5952217 -0.46751601 0.69323224
-0.046015665 0.026656009 0.98220283
-0.20902215 -0.32753378 1.0685686
-0.37875727 -0.16616115 0.86870247
0.37988546 -0.68251741 1.3129178
0.45639381 -0.73157978 1.4485607
0.27306098 -0.99562073 1.5157378
0.57150829 -2.2395823 3.2596443
-0.49135408 -0.51534563 0.76117593
-0.48251054 -0.2620919 0.67368805
-0.55641258 -0.68154764 0.82507408
-0.6800195 -0.76797748 0.51603615
-1.0376338 -1.3884745 0.51016986
-0.94367737 -1.296874 0.51173496
-0.54528439 -0.64106792 0.27689615
0.14936636 -1.7217793 1.9085577
0.24321809 -1.0161779 1.2906857
-0.57449907 -0.50117218 0.60724777
-0.44886902 -1.3241576 1.3559297
-0.57546407 -0.41016155 0.72610527
-0.20580149 -0.92222285 1.697093
-0.42740858 -0.19634698 0.74713421
0.13504761 -0.44554228 1.177569
-0.67557883 -0.4564783 0.92735767
0.098577797 -0.18190064 1.1277499
0.45934311 -1.0931324 1.8048103
-0.60078645 -0.72394741 0.90763223
