# .PCD v0.7 - Point Cloud Data file format
VERSION 0.7
FIELDS x y z
SIZE 4 4 4
TYPE F F F
COUNT 1 1 1
WIDTH 85
HEIGHT 1
VIEWPOINT 0 0 0 1 0 0 0
POINTS 85
DATA ascii
-0.46838433 -0.59518802 0.67798311
-0.19251873 -0.26509064 1.09339
-0.71957302 -0.81608433 0.7113362
-0.67705125 -0.48656046 0.37233517
-0.34559578 -0.165048 0.90695405
-0.4937861 -0.62589371 0.62303025
-0.91462207 -0.94205052 0.72040451
-0.42341837 -0.45659611 0.87272465
-0.81326795 -0.75067961 0.27161247
-0.28387156 -0.31083733 1.0520689
-0.64813513 -0.77033961 0.91018236
-0.55641258 -0.68154764 0.82507408
-0.47853222 -0.42798918 0.86497903
-0.66312087 -0.47453257 0.86187166
-0.3911401 0.0026749016 0.76881337
-0.61906856 -0.71295953 0.54140532
-0.40867829 -0.24782652 0.79752898
-0.36613798 -1.1023052 1.1673918
-0.014033484 -0.37019908 1.2132573
-0.48488933 -0.56054789 0.55369335
-0.72607422 -0.81825912 0.48853171
-0.46069032 -0.28065595 0.72198045
-0.43158409 -0.22986604 0.74292433
-0.48658302 -0.26372266 0.68120337
-0.43251088 -1.1465805 1.0604533
-0.43864021 -0.56924677 0.7932629
-0.6268456 -0.63585693 0.35322267
0.20049156 -0.40656891 1.2232997
-0.47441378 -0.52923298 0.86891466
-0.40124008 -0.15436225 0.75725055
-0.44116157 -0.13765746 0.72236305
-0.38202822 -0.26928723 0.82962143
-0.83479089 -0.90916795 0.53862965
0.24701743 -0.21492098 1.1869497
0.1190779 -0.36069196 1.2126776
-0.76839978 -0.85332596 0.51367116
-0.10034997 -0.47995055 1.3389794
-0.19200146 -0.47871545 1.374305
0.010117772 -0.45557183 1.1508472
-0.37513918 -1.230722 1.4480804
-0.20902215 -0.32753378 1.0685686
-0.36858279 -0.53131592 0.83747828
-0.40044472 -0.54805082 0.80321509
-0.49135408 -0.51534563 0.76117593
-0.36258233 -0.23417403 0.87562853
-0.77551794 -0.86172235 1.2315927
-0.33786014 -1.0201921 1.0288279
-0.74857372 -0.83520871 0.55565834
-0.40990376 -0.1484075 0.78535527
-0.43480206 -0.19810218 0.77401197
-0.74223095 -0.65215403 0.6860072
0.098577797 -0.18190064 1.1277499
-0.7615003 -0.79054868 0.4748936
-0.7721687 -0.85266703 0.6125266
0.43550605 -0.69457459 1.2879636
-0.51182514 -0.32243091 0.67533416
-0.67552549 -0.66174865 0.61250734
-0.5952217 -0.46751601 0.69323224
-0.54740888 -0.66493356 0.81450754
-0.57117105 -0.58634758 0.43208203
-0.069686919 -0.25532722 1.1005335
-0.11925379 -0.335201 1.1216296
-0.45169735 -0.42278674 0.76005948
-0.18167816 -0.33996645 1.1169058
-0.0059636091 -0.47527987 1.2246923
-0.36528489 -0.045755371 0.74169457
-0.40226576 -0.53522307 0.98959172
-0.47332558 -0.61362302 0.99112427
0.20931371 -0.62151098 1.1709793
-0.20580149 -0.92222285 1.697093
-0.54489744 -0.59694558 0.77891093
-0.74837941 -0.86578089 1.1597028
-0.43929636 -0.19680814 0.77997774
-0.49135408 -0.51534563 0.76117593
-0.22233933 -0.594212 1.0961864
-0.29077876 -0.40453398 1.1138457
-0.76839978 -0.85332596 0.51367116
-0.46764717 -0.28065345 0.73958266
-0.68207157 -0.66271728 0.64095974
-0.10399323 0.089125283 1.140445
-0.60078645 -0.72394741 0.90763223
-0.57449907 -0.50117218 0.60724777
0.12302913 -0.36130437 1.2040578
-0.78393954 -0.8686226 0.59352112
-0.4039664 -1.178632 1.1799315
