# .PCD v0.7 - Point Cloud Data file format
VERSION 0.7
FIELDS x y z
SIZE 4 4 4
TYPE F F F
COUNT 1 1 1
WIDTH 164
HEIGHT 1
VIEWPOINT 0 0 0 1 0 0 0
POINTS 164
DATA ascii
-0.72092116 -0.84642261 0.60061282
-1.4937928 -1.7385993 0.20589182
-1.2825432 -1.1581894 0.092777133
-1.3306547 -1.0465413 0.16128185
-0.28051242 -1.2542481 0.68408865
-1.0539528 -1.7854271 0.38851738
-1.1602967 -1.7059603 0.27676979
-1.3470993 -1.7893015 0.29119873
-1.3510649 -1.0703194 0.18251085
-1.6232066 -2.0073466 0.27362043
-0.85863858 -1.8458222 0.37224597
-1.0929888 -0.77392137 0.57418269
-1.1087562 -0.82210916 0.3624436
-1.3740811 -1.6878304 1.8048935
-1.3209157 -1.1627932 0.096383892
-1.0019307 -1.0862895 0.43695164
-0.62929004 -1.5490273 0.59905511
-0.97648019 -0.80534142 0.39191514
-1.3376275 -0.98573482 0.43098193
-0.88787913 -1.6397934 0.49050918
-0.87109745 -1.8155398 0.25691131
-0.32862049 -1.6966197 0.773435
-1.0920656 -1.7592279 0.36203563
-1.0858898 -1.0591563 0.087906472
-1.1651331 -1.1322365 0.16229156
-1.1629131 -0.86584759 0.46461064
-0.83890039 -1.8329494 0.46624252
-1.3090318 -1.0755386 0.19506256
-2.0858929 -2.3967583 3.278616
-0.51119572 -1.5671176 0.75099492
-0.76172823 -0.68728793 0.60584676
-1.1706882 -1.9081491 0.38029215
-1.3004133 -1.6499507 0.036540758
-0.90566391 -1.0995213 0.93825388
-0.96982145 -0.72033215 0.57820827
-1.6421329 -2.1208761 0.056133211
-1.7057761 -1.7545434 0.11577915
-1.7694981 -1.8886508 0.05077105
-1.3055965 -1.101244 0.12127376
-0.51838535 -0.85589588 0.70504576
-0.4657979 -0.78597754 0.70381916
-1.3687189 -1.0480484 0.12783198
-0.80553144 -2.0304618 0.79933465
-1.0174149 -1.1348176 0.55183989
-1.0312015 -1.158595 0.37745333
-1.0877132 -1.0595671 0.31313768
-1.0136962 -1.0537763 0.30545157
-0.58870769 -0.78050417 0.8317793
-0.29151326 -1.5074947 1.0198268
-1.0249715 -1.684389 0.40096179
-0.57124931 -1.5768051 0.55667281
-1.1776661 -0.8286441 0.44953427
-1.2013284 -0.99222881 0.13980883
-2.1219566 -1.5165524 -0.011956238
-0.81870419 -0.72563303 0.50027525
-1.3097447 -0.69501126 -0.015593159
-1.5857199 -1.6760546 0.17975642
-2.1135006 -1.5062034 -0.015759829
-0.92368191 -1.7992607 0.66137612
-0.58121669 -0.73639113 0.70577663
-0.42820498 -1.6334555 0.94584036
-2.1071033 -0.96115488 1.2491081
-1.0761135 -0.92915475 0.46483395
-1.0423932 -0.75014716 0.1486398
-1.1218386 -1.4859792 1.1143999
-1.2373289 -0.83129555 0.36347693
-1.298628 -1.6761857 0.059651647
-0.6481033 -0.9908902 0.58289433
-0.76497197 -0.98682928 0.19038896
-1.4931561 -1.0079978 0.61750782
-0.8489188 -1.6847998 0.46212819
-0.23562971 -1.7639154 1.2328932
-0.27681199 -1.349519 0.85643476
-0.46904811 -1.0653733 0.71886742
-0.61583066 -0.99273443 0.55150843
-0.98993677 -1.1963537 0.27064586
-0.56078357 -1.0067906 0.6654036
-0.74984932 -0.68245012 0.53087151
-0.87559092 -0.71145654 0.59914887
-1.4443876 -1.0477742 0.50282937
-1.260763 -1.0661145 0.37651679
-2.4283867 -0.88246554 0.39560571
-0.27320093 -1.5371132 0.97581929
-1.3276871 -1.0594831 0.15240641
-0.9604876 -0.83914703 0.49973449
-0.70671451 -1.0510149 1.0055761
-1.188658 -1.8617886 0.088031009
-0.63047862 -1.6791387 0.71480191
-1.8845632 -1.6069484 0.012829267
-1.3826083 -1.0622603 0.16078873
-0.85254419 -2.2477553 0.53475142
-0.9362976 -2.0073743 0.32056594
-0.70182365 -1.7301176 0.56052679
-0.79801691 -1.7510488 0.53942281
-0.85887998 -0.93882638 0.4695937
-0.59989828 -0.95944947 0.60034001
-1.3397835 -1.1180331 0.28193334
-1.4937928 -1.7385993 0.20589182
-1.1623635 -1.8227034 0.27776363
-0.87509352 -1.9050533 0.50849289
-1.5023273 -1.8230888 0.19212916
-0.96540475 -0.83721805 1.1912168
-1.003855 -1.6851465 0.38715833
-1.0800585 -1.7342881 0.35439846
-1.0652109 -1.801105 0.24246652
-1.2610213 -0.77342546 0.028171346
-0.97693157 -1.0213333 0.29131976
-1.0315752 -1.0277874 0.30455315
-2.2200849 -1.6010679 0.036886882
-1.5234629 -1.7098852 0.038835783
-1.9328234 -2.1356168 0.13478757
-0.8891921 -1.1069723 0.42604142
-1.0248362 -0.77070165 0.22194935
-1.5661833 -0.67845261 -0.08127398
-1.4691043 -0.81204718 0.030853726
-1.9620713 -2.0437815 0.32185069
-1.5218227 -1.9998285 0.0068699354
-0.58089012 -0.75862741 0.6951108
-0.53206974 -0.72144771 0.64646053
-0.62741256 -0.79781425 0.74992746
-0.422021 -1.0595902 0.69282192
-0.99962676 -1.1134716 0.33432719
-1.1406777 -0.80775344 0.39765832
-1.090019 -1.0510081 0.29482356
-1.4072864 -1.6574029 0.20243804
-1.544885 -1.7785262 0.24662468
-1.0247129 -1.0932246 0.2733545
-0.7214334 -1.0302747 0.40871993
-1.1585696 -1.1262211 0.18178017
-1.335503 -1.1976109 0.086840257
-1.2317148 -0.70614702 -0.014888129
-1.4443825 -0.6650911 -0.061610017
-1.0555538 -0.55192804 0.052891217
-1.2282921 -0.73101419 0.23143224
-0.61721778 -0.96542013 0.56052309
-1.4208443 -1.0205806 0.077152699
-0.68639064 -0.76339245 0.44596404
-0.85632479 -0.95214838 0.47456068
-0.96345103 -1.7441679 0.45266399
-0.65397328 -0.99198848 0.56751245
-0.80953413 -1.0938357 0.40654239
-0.94735074 -1.1405153 0.83164114
-1.1012421 -1.1257221 0.21531409
-1.1839963 -0.79593569 -0.10204939
-1.2825432 -1.1581894 0.092777133
-0.42820498 -1.6334555 0.94584036
-0.69761938 -0.94981015 0.60412455
-0.97440237 -1.0832729 0.46601921
-0.70693302 -0.6449492 0.37498388
-0.94531751 -0.66525912 0.72805691
-1.4074816 -0.74162686 -0.073635355
-1.5659193 -1.8907676 0.26253423
-0.95372385 -1.1137763 0.42084458
-0.49804708 -1.6127391 0.84465539
-0.19261873 -1.6631532 1.1791754
-1.0901364 -1.0680257 0.32103726
-1.6249819 -1.7347761 -0.16868405
-1.2084547 -1.8261847 0.11051609
-0.57159162 -1.5609735 0.54060972
-0.68403572 -1.0717697 0.49298009
-1.0187826 -0.71795148 0.025807079
-1.3611135 -0.78265595 -0.036318164
-2.043993 -1.5474132 -0.02090973
-1.3137276 -1.1117947 0.13120094
