# .PCD v0.7 - Point Cloud Data file format
VERSION 0.7
FIELDS x y z
SIZE 4 4 4
TYPE F F F
COUNT 1 1 1
WIDTH 195
HEIGHT 1
VIEWPOINT 0 0 0 1 0 0 0
POINTS 195
DATA ascii
-1.3137276 -1.1117947 0.13120094
-1.2780869 -1.0316657 0.14353432
-1.0423932 -0.75014716 0.1486398
-0.898709 -1.0784446 0.31569529
-1.7057761 -1.7545434 0.11577915
-0.85122299 -1.4246978 0.31508675
-1.634429 -0.60811889 -0.17840272
-1.2885034 -0.59719372 -0.074661441
-1.416229 -0.79651684 0.019027211
-1.2825432 -1.1581894 0.092777133
-0.55455118 -0.68304884 0.68851274
-1.3111211 -1.1503937 0.088062122
-0.84149927 -1.029434 0.66313881
-0.97845352 -0.64988059 -0.05779653
-1.2109767 -1.0272233 0.31567344
-1.3510649 -1.0703194 0.18251085
-0.94182348 -1.0694928 0.53385627
-1.0248362 -0.77070165 0.22194935
-1.012401 -0.77444398 0.21704181
-1.0969107 -1.1088905 0.23921433
-1.1651331 -1.1322365 0.16229156
-0.90076077 -1.0452298 0.26699558
-1.1706882 -1.9081491 0.38029215
-1.0555538 -0.55192804 0.052891217
-1.3004133 -1.6499507 0.036540758
-0.92141092 -1.9788342 0.62835634
-1.2034757 -0.76022029 -0.0061862092
-1.2084085 -0.73135859 -0.031824306
-1.0723472 -1.8261753 0.45986623
-0.65148741 -0.8797372 0.66201824
-1.6485019 -1.79142 0.11204655
-1.1602967 -1.7059603 0.27676979
-1.1604588 -1.0881051 0.17821932
-1.6571251 -1.6176904 0.10463598
-1.3111758 -1.1122413 0.27296314
-1.3090318 -1.0755386 0.19506256
-0.98410863 -1.108256 0.53534305
-1.0174149 -1.1348176 0.55183989
-0.74464417 -0.85018569 0.61428905
-1.0301927 -0.82955909 0.53275222
-1.3055965 -1.101244 0.12127376
-2.4283867 -0.88246554 0.39560571
-1.6895102 -0.62067968 -0.16644599
-1.2300813 -1.0454373 0.34107757
-1.0312015 -1.158595 0.37745333
-0.91506398 -0.72868139 0.3429454
-1.3031836 -1.7757058 0.34930605
-0.85887998 -0.93882638 0.4695937
-1.0718944 -1.7789311 0.32725975
-0.83890039 -1.8329494 0.46624252
-0.86096036 -1.978155 0.49886888
-1.7419983 -0.61771172 -0.10290888
-1.4456323 -0.63486105 -0.10263629
-1.3026512 -1.755699 0.21472107
-1.4767522 -1.7260046 0.12247413
-0.97440237 -1.0832729 0.46601921
-1.0479995 -1.0436461 0.31998909
-1.344625 -1.167429 0.22757992
-1.2344599 -1.0404272 0.2732614
-0.80982673 -1.0656861 0.48311245
-1.3966219 -1.2153683 0.12794758
-1.3386511 -1.1942822 0.089178517
-1.3480238 -1.1826148 0.076000355
-1.3096241 -1.1011417 0.26678544
-1.056666 -1.0853549 0.28307718
-0.76497197 -0.98682928 0.19038896
-1.5997378 -1.6448078 0.13560101
-1.6240537 -1.6792881 0.1143722
-0.76670796 -0.69448113 0.62531775
-0.57159162 -1.5609735 0.54060972
-1.47594 -1.7601537 0.13598022
-1.1890422 -1.1332321 0.1494123
-1.2825432 -1.1581894 0.092777133
-1.2523636 -0.9605093 0.21803236
-1.386595 -0.87117225 0.37405711
-1.3121291 -0.91975051 0.44185764
-0.78518605 -1.8158954 0.51577777
-1.0249715 -1.684389 0.40096179
-0.56693649 -0.7174865 0.7072438
-1.3139751 -1.1300607 0.11189411
-1.8459604 -1.5562382 0.016511666
-1.424595 -0.52110881 -0.12881146
-1.3740811 -1.6878304 1.8048935
-0.77241391 -1.1599962 0.55983478
-1.0479167 -0.83367407 0.43962446
-0.92136228 -0.71040779 0.35332826
-0.665254 -0.96533221 0.50713527
-1.7070737 -2.1245532 0.23570484
-1.4333018 -1.0339178 0.14078493
-1.6440729 -0.44797763 -0.079016216
-1.0336319 -1.0120617 0.36284745
-1.6720984 -0.64113611 -0.13001677
-1.7601398 -0.67732686 -0.092641905
-1.090019 -1.0510081 0.29482356
-1.8877108 -1.6014147 0.040085759
-2.0302055 -1.8986468 0.15663083
-1.7870585 -0.64313382 -0.17089516
-1.437272 -1.6844441 0.1487087
-0.70134705 -1.067879 0.53588319
-1.5299562 -1.7982206 0.23227458
-1.5049174 -1.8279335 0.010803131
-0.94735074 -1.1405153 0.83164114
-0.63331234 -1.0542202 0.56177717
-0.91747206 -1.1176628 0.3655414
-1.4833122 -0.93850851 0.16359407
-1.4077584 -1.1122031 0.065225087
-1.6193635 -1.8010989 0.090285107
-1.5220089 -1.7228271 0.036349799
-1.3111211 -1.1503937 0.088062122
-1.2578777 -1.0584675 -0.0047554099
-0.87957126 -1.0699081 0.75280899
-0.70671451 -1.0510149 1.0055761
-0.85632479 -0.95214838 0.47456068
-1.0627559 -1.2532343 1.3618921
-2.2200849 -1.6010679 0.036886882
-1.5281701 -1.4986624 0.00627393
-1.5448604 -1.6290132 0.0040425593
-1.3826083 -1.0622603 0.16078873
-0.84599894 -1.8205748 0.41661429
-0.82114053 -1.8080924 0.51530582
-0.92141092 -1.9788342 0.62835634
-1.2469978 -0.71515256 0.0010384078
-1.4858762 -0.93303263 0.11748769
-0.80953413 -1.0938357 0.40654239
-1.0425959 -1.7396895 0.43531519
-1.2825432 -1.1581894 0.092777133
-1.3990523 -0.74237061 -0.019254358
-0.53100896 -0.86286914 0.46531409
-1.5350122 -1.9842356 0.11082231
-1.2610213 -0.77342546 0.028171346
-0.89043367 -1.8627456 0.4853608
-1.260763 -1.0661145 0.37651679
-1.0761135 -0.92915475 0.46483395
-1.2780869 -1.0316657 0.14353432
-1.1088454 -0.99234259 0.10335793
-1.456713 -0.46939954 -0.081036083
-1.3306547 -1.0465413 0.16128185
-1.3777432 -1.0200896 0.094930828
-1.3077985 -1.1056156 0.12468453
-0.98513925 -1.1587223 0.37514448
-1.0433724 -1.1150607 0.48674855
-0.87327302 -1.0546255 0.58463353
-1.842914 -1.6819917 0.074272618
-1.0247129 -1.0932246 0.2733545
-0.96345103 -1.7441679 0.45266399
-1.5622863 -1.7817893 -0.0073348763
-0.79801691 -1.7510488 0.53942281
-1.5871387 -1.6309268 0.12757586
-1.7058465 -1.7077221 0.11962055
-1.3568966 -0.92752624 0.12527838
-0.82641256 -1.0737695 0.45166793
-1.1502354 -0.89771634 0.60173136
-0.50965595 -0.86578697 0.63699907
-0.95292538 -1.1587758 0.31214735
-0.7214334 -1.0302747 0.40871993
-0.95557678 -1.1791255 0.38769877
-1.0298897 -1.1131763 0.24511588
-1.8494426 -1.5602657 0.022841759
-1.2752457 -0.5624553 0.090739474
-1.3166463 -1.131054 0.11599926
-1.2843988 -1.1006194 0.081519015
-0.97506869 -1.1687472 0.66555774
-1.6267956 -0.54105258 -0.089555599
-0.96540475 -0.83721805 1.1912168
-0.78145534 -0.70683759 0.70569515
-0.95358634 -1.2312135 0.57901728
-1.3148566 -1.7026484 0.27068603
-1.2547057 -1.6949611 0.3042168
-1.3348014 -1.0307317 0.16449632
-1.3608286 -1.0785559 0.19112474
-1.1406777 -0.80775344 0.39765832
-1.2284061 -1.0366322 0.16246966
-1.3611135 -0.78265595 -0.036318164
-1.0281631 -1.1694601 0.6084187
-1.0750259 -1.7529094 0.28054756
-1.1748064 -1.8576368 0.26627654
-1.2285761 -1.0228413 0.31751996
-1.3097063 -1.1200205 0.073549278
-1.570689 -0.8035329 0.07481049
-1.1312473 -1.7568989 0.39394405
-1.0800585 -1.7342881 0.35439846
-1.1042306 -1.0777705 0.26399246
-0.96173179 -1.226378 1.3031684
-1.4072864 -1.6574029 0.20243804
-1.3183764 -1.704101 0.27056155
-1.246412 -0.71440214 0.00066532806
-1.5157555 -1.9829154 0.14805298
-1.0554225 -0.8283667 0.52269274
-0.79431671 -1.1783111 0.41727912
-1.1250165 -1.1020609 0.18990646
-1.2252195 -0.63421732 -0.035447113
-1.1249665 -0.89437354 0.52871054
-0.95951986 -0.8351872 0.49302742
-1.3423713 -0.71563107 -0.049637366
-1.3861557 -0.92942232 0.065206379
