# .PCD v0.7 - Point Cloud Data file format
VERSION 0.7
FIELDS x y z
SIZE 4 4 4
TYPE F F F
COUNT 1 1 1
WIDTH 67
HEIGHT 1
VIEWPOINT 0 0 0 1 0 0 0
POINTS 67
DATA ascii
-0.17081209 -0.25671807 1.0236465
-0.1807441 -0.25530297 0.88103449
0.0044752317 -0.05226855 1.0099167
0.30393502 0.066954792 1.093619
-0.24321657 -0.28788483 0.85133022
0.080216043 -0.33799025 1.1072735
0.2436651 -0.27126983 1.0619993
0.001498683 0.19609128 0.9520179
-0.20246051 0.18240176 0.91893512
-0.12291147 0.086122811 0.9460758
0.31692469 -0.63591129 1.1836005
-0.33651528 -0.45247826 0.42820075
0.22640175 0.25397027 1.0683129
0.031675588 -0.2624062 1.0674497
-0.018914154 -0.3483803 1.0938463
-0.27138954 -0.20864178 0.84203541
0.05819938 0.32334632 1.0519304
0.18706213 -0.20617594 1.0630412
0.26078308 -0.056164145 1.0593853
-0.036118679 0.18342187 0.95163953
0.18829779 0.065410949 1.0348744
0.11041763 0.20480956 1.0033293
-0.051632889 0.058662377 0.98734748
0.0039134026 -0.059379898 1.0793004
-0.15405741 -0.082520396 0.96082336
0.097223386 0.11805677 1.0100354
0.28524631 0.099303395 1.0907158
0.57199878 -0.045938615 1.1768098
0.4365038 -0.086066477 1.1781271
0.72537106 -0.24684119 1.4279636
0.30617714 -0.61966157 1.1451383
0.32788166 -0.65091377 1.1834141
-0.3191095 -0.3806102 0.61393726
-0.14727062 -0.46526343 0.76843774
-0.46717229 -0.55090475 0.71002132
-0.3685452 0.036737826 0.8006292
0.072593331 0.2443683 0.98728138
-0.42203951 -0.51115417 0.83029914
-0.47489601 -0.53934318 0.65584719
0.17073435 0.092782021 1.1405615
0.25947997 0.081788287 1.0740535
0.081692018 0.19794734 0.99012691
-0.17496744 -0.042225126 0.95250553
-0.085828312 0.24082743 0.92707324
-0.084697939 -0.2382185 1.0270063
0.17730565 -0.029075185 1.0670496
-0.46530184 -0.5238269 0.63577092
0.13660285 0.058772456 1.0451905
0.00088581658 0.17346291 0.97271538
0.16527839 -0.61054355 1.164012
0.31020358 -0.62429309 1.1614882
0.25006741 -0.89955592 1.3123724
0.44297355 -0.42554754 1.0313367
-0.017972827 -0.36111295 1.1520419
0.33087066 -0.37776634 1.1237342
-0.38652411 -0.38223293 0.7430163
-0.24467601 -0.70917493 0.89199424
0.10092817 -0.82761467 1.0642415
-0.087153234 -0.24124122 1.0355295
0.00088581658 0.17346291 0.97271538
0.27590117 0.099164568 1.0626867
0.61149096 -0.17348661 1.2159295
0.34914368 -0.63409007 1.1579328
0.47343716 -0.43810129 1.1047448
0.10061211 -0.75781113 0.99129301
-0.22195542 -0.59310514 0.72336686
-0.46568164 -0.51925081 0.55249584
