# .PCD v0.7 - Point Cloud Data file format
VERSION 0.7
FIELDS x y z
SIZE 4 4 4
TYPE F F F
COUNT 1 1 1
WIDTH 110
HEIGHT 1
VIEWPOINT 0 0 0 1 0 0 0
POINTS 110
DATA ascii
0.41284207 0.30553123 1.0768672
0.46773136 0.22241038 1.0956159
-0.011389053 0.26279613 1.0341052
0.14591326 -0.053062581 1.1507262
-0.024953175 0.40834045 0.99469125
0.25732058 0.33798063 1.0532596
0.39506933 0.33963367 1.0781091
0.080860175 0.083379596 1.1298538
0.26267943 0.468373 1.0267291
0.10682524 0.51376837 0.93524957
0.41406614 0.58161795 1.065416
0.25523272 -1.0076567 1.6213976
0.8863191 -0.26354605 1.4905622
0.28092855 0.31750908 1.0726812
0.37940311 0.32386434 1.0345882
-0.031352453 -0.031003874 1.119017
0.13544656 0.11546931 1.1302971
0.47505915 0.22665735 1.1141893
-0.19078624 -0.47559249 1.0031079
0.15305355 0.057952926 1.1548054
0.43984234 -0.56590319 1.3585929
0.66711855 -0.38195392 1.3689103
0.71243274 -1.3100998 2.9793823
1.002318 0.13364993 1.5616034
0.8783434 -0.044090189 1.3075517
0.38212711 0.24625094 1.1032609
0.47505915 0.22665735 1.1141893
0.18868828 0.50097185 0.9579227
0.17044474 0.47098532 1.0261265
0.2660321 0.34674898 1.094514
0.28838241 0.27545545 1.0687008
0.61078054 0.46870604 1.1410573
0.25141633 -0.11959731 1.194013
0.3524653 0.079492509 1.0838895
-0.037322465 0.11418823 1.0852052
0.042379774 0.10914037 1.1393722
-0.13241494 0.20377131 1.1454699
0.10059414 0.019866319 1.1541214
0.02557732 -0.070256568 1.1768866
0.32225245 0.11871453 1.1162113
0.26496378 0.4750154 1.040046
0.07324674 0.12817053 1.2045983
0.074112229 0.32851297 1.0222771
0.19118203 0.31145296 1.0615191
0.28649506 0.21330406 1.0967594
0.51176119 0.39577785 1.1147466
0.45015019 0.27738824 1.0931263
0.17233156 0.45931894 0.78123099
0.43206516 -0.26235658 1.206407
0.73716038 -0.47996819 1.533304
0.55752885 -0.56983411 1.3056463
0.56172687 -0.047451966 1.1468563
-0.26515281 0.044556372 0.99619162
-0.12177221 -0.13978086 1.1428668
-0.12562418 0.089512713 1.0383215
0.14655167 -0.052904371 1.1566809
0.18831503 -0.5809021 1.188031
0.13942324 0.49104574 1.0610029
0.28136003 -0.034342628 1.166406
0.22151782 -0.073638454 1.1691864
0.093153983 0.29951426 0.49557912
0.38871935 0.55751109 1.0589098
0.042586371 0.10648019 1.1325109
0.065167882 0.45776618 0.977763
0.81405926 -0.19649382 1.4560472
0.83148128 -0.26562682 1.437783
0.75971645 -1.1028438 2.4678483
0.39915392 0.029336419 1.1579132
-0.070592083 0.23619747 1.0608771
-0.11052153 0.16864763 0.95610607
-0.11686275 0.36787695 0.9872424
0.26794529 0.30258742 1.0300062
0.39415529 0.281454 1.0862993
0.28838241 0.27545545 1.0687008
1.0357351 -0.18765841 1.3824852
0.13616182 0.21364242 1.178074
0.12828326 0.12815416 1.1267047
0.23120749 0.35719532 1.0746932
-0.098705165 -0.28369835 0.44230485
0.15679523 0.41053855 1.0308208
0.15305355 0.057952926 1.1548054
0.18051966 0.26677462 1.0550795
0.62427557 0.26924789 1.0709413
0.40454721 0.4904463 0.96415383
0.51505458 0.39599866 1.1216227
0.45015019 0.27738824 1.0931263
0.18016115 0.45728838 0.76641273
0.98446906 -0.15233922 1.3247399
0.61278325 -0.31002471 1.2428769
0.4697102 -0.31226739 1.2322968
0.58501852 -0.59500897 1.3653197
0.42962089 -0.081542931 1.1614892
0.25608847 -0.18184935 1.1933812
-0.12177221 -0.13978086 1.1428668
-0.033725366 -0.035982899 1.1200362
-0.31896406 0.15248002 0.79423177
0.21633671 0.3969495 1.0393512
1.2316226 -0.095240653 1.8014801
-0.024485901 0.40856722 1.0036213
0.57345051 -0.78061259 1.6565773
0.26823914 0.10422865 1.1415381
0.15737709 0.41736796 1.0494282
0.20251422 0.37297711 1.064502
0.28649506 0.21330406 1.0967594
0.030702626 -0.22829351 1.2371434
0.38006032 0.24692509 1.1090125
0.66705257 -0.68813783 1.5606432
0.34413746 -0.031794023 1.1276522
0.84121037 0.091385849 1.34124
1.0922303 -2.5028865 4.5398173
