# .PCD v0.7 - Point Cloud Data file format
VERSION 0.7
FIELDS x y z
SIZE 4 4 4
TYPE F F F
COUNT 1 1 1
WIDTH 103
HEIGHT 1
VIEWPOINT 0 0 0 1 0 0 0
POINTS 103
DATA ascii
-1.4456323 -0.63486105 -0.10263629
-2.1219566 -1.5165524 -0.011956238
-1.3137037 -0.82461762 0.26554593
-1.6324422 -3.2739911 1.0605758
-1.3740811 -1.6878304 1.8048935
-0.95327806 -1.093491 0.61663204
-1.3510649 -1.0703194 0.18251085
-1.2986274 -0.94201213 0.16869771
-1.7666116 -0.76454824 -0.14661382
-1.5836508 -1.6714648 0.17407322
-1.6232066 -2.0073466 0.27362043
-1.5997378 -1.6448078 0.13560101
-1.6164666 -1.9663757 0.10566113
-1.3026512 -1.755699 0.21472107
-2.4283867 -0.88246554 0.39560571
-1.1087562 -0.82210916 0.3624436
-1.0249715 -1.684389 0.40096179
-0.90566391 -1.0995213 0.93825388
-0.98410863 -1.108256 0.53534305
-1.2013284 -0.99222881 0.13980883
-1.3055965 -1.101244 0.12127376
-1.1458203 -1.7867796 0.34953195
-0.757258 -1.8022996 0.57075399
-1.326021 -0.56834227 -0.084965654
-2.109756 -0.65592664 0.018582184
-1.2084085 -0.73135859 -0.031824306
-1.8459604 -1.5562382 0.016511666
-1.185995 -0.82043618 0.15082146
-1.9620713 -2.0437815 0.32185069
-1.0750259 -1.7529094 0.28054756
-1.6720984 -0.64113611 -0.13001677
-1.4041647 -0.97774845 0.10440645
-0.95772761 -0.88209432 0.53496397
-1.7754958 -0.55758679 -0.16647623
-1.3968234 -0.63727212 -0.075645871
-0.898709 -1.0784446 0.31569529
-1.3826083 -1.0622603 0.16078873
-1.4077584 -1.1122031 0.065225087
-1.9800276 -0.70649195 -0.092743278
-1.929564 -1.1133525 -0.19647479
-1.5593921 -0.89416367 -0.37310579
-0.97506869 -1.1687472 0.66555774
-1.090019 -1.0510081 0.29482356
-1.0858898 -1.0591563 0.087906472
-1.2018067 -0.76230019 -0.0032724098
-1.2361299 -0.82422292 -0.055727668
-1.5350122 -1.9842356 0.11082231
-1.842914 -1.6819917 0.074272618
-1.6267956 -0.54105258 -0.089555599
-2.2200849 -1.6010679 0.036886882
-1.5448604 -1.6290132 0.0040425593
-1.2843988 -1.1006194 0.081519015
-1.2825432 -1.1581894 0.092777133
-1.3111211 -1.1503937 0.088062122
-0.94432586 -1.0871191 0.5702914
-0.97334892 -1.0763214 0.49011612
-1.3397835 -1.1180331 0.28193334
-1.3306547 -1.0465413 0.16128185
-1.6182184 -1.8777846 0.084485888
-1.3763049 -0.98661339 0.088285364
-1.2317148 -0.70614702 -0.014888129
-1.1903468 -1.8646108 0.089297749
-1.6440729 -0.44797763 -0.079016216
-0.92601389 -1.1081626 0.29066694
-1.0747368 -0.8350296 0.41314149
-1.0297818 -0.74025023 0.13130113
-1.1312306 -0.67613125 0.12689956
-1.3568966 -0.92752624 0.12527838
-1.4917836 -0.69111204 -0.097584628
-2.1071033 -0.96115488 1.2491081
-1.4691043 -0.81204718 0.030853726
-1.4828107 -0.66724581 -0.11785988
-1.727897 -1.8813126 -0.15474355
-1.7238287 -0.56691265 -0.19489929
-1.0425959 -1.7396895 0.43531519
-1.7362298 -0.66815841 -0.17298482
-0.85632479 -0.95214838 0.47456068
-1.0316278 -0.81123579 0.46415254
-1.260763 -1.0661145 0.37651679
-1.2767385 -1.1010513 0.21611941
-1.3096241 -1.1011417 0.26678544
-1.0433724 -1.1150607 0.48674855
-1.1585696 -1.1262211 0.18178017
-0.82114053 -1.8080924 0.51530582
-1.3276871 -1.0594831 0.15240641
-1.2896677 -0.59843427 -0.21854918
-1.6741003 -0.44411358 -0.15421617
-2.1135006 -1.5062034 -0.015759829
-2.043993 -1.5474132 -0.02090973
-1.1215434 -0.69971567 0.015051125
-0.85887998 -0.93882638 0.4695937
-1.2344599 -1.0404272 0.2732614
-0.97440237 -1.0832729 0.46601921
-1.4937928 -1.7385993 0.20589182
-1.7002988 -1.7805724 0.16350052
-1.3864397 -1.7379637 -0.076021872
-0.97693157 -1.0213333 0.29131976
-1.3966219 -1.2153683 0.12794758
-1.5659193 -1.8907676 0.26253423
-1.1772176 -1.1479138 0.17921853
-0.79431671 -1.1783111 0.41727912
-1.631776 -0.67953897 -0.091460206
-1.0554225 -0.8283667 0.52269274
