# .PCD v0.7 - Point Cloud Data file format
VERSION 0.7
FIELDS x y z
SIZE 4 4 4
TYPE F F F
COUNT 1 1 1
WIDTH 66
HEIGHT 1
VIEWPOINT 0 0 0 1 0 0 0
POINTS 66
DATA ascii
-0.33035675 -0.39520887 0.66210657
-0.41346267 -0.17679295 0.7355122
-0.52889115 -0.38958678 0.59138304
-0.41523105 -0.56962401 0.41204646
-0.42268062 -0.31109381 0.69481951
-0.2902151 -0.080835097 0.88589376
-0.47608197 -0.53098947 0.59758341
0.062502913 -0.17522454 1.0720352
-0.51182443 -0.53684634 0.38546243
-0.37216362 -0.44856229 0.74028218
-0.22545248 -0.61661571 0.75802124
-0.5507673 -0.477797 0.44898349
-0.27910486 -0.64968073 0.48422715
-0.29838222 -0.23024322 0.92320907
-0.54272467 -0.35768297 0.68015039
-0.31567052 -0.50161731 0.40567812
-0.40881842 -0.17687297 0.72873503
-0.38146406 -0.2711764 0.75395942
-0.4292537 -0.11965711 0.72625405
-0.36251572 -0.36438552 0.74620122
-0.19382584 -0.24506037 0.99684358
-0.18717256 -0.31690124 1.0510589
0.06303449 -0.36370632 1.1183846
0.048879296 -0.73756027 1.1039225
0.12030441 -1.2215484 1.4017154
-0.44216427 -0.42323899 0.6483106
-0.4354988 -0.24436235 0.67751282
0.20777726 -0.45353225 1.113458
-0.50372475 -0.51729918 0.25411266
-0.31800663 -0.13301933 0.89973706
0.064086631 -0.17684859 1.0558412
0.083076015 -0.33672386 1.1005745
-0.27421021 -0.37264329 0.83075434
-0.47108075 -0.2256383 0.70356393
-0.31636083 -0.37803793 0.5081358
-0.51184994 -0.33490336 0.63964003
-0.43065476 -0.39761561 0.68622923
-0.43961862 -0.42238513 0.64419246
-0.55871058 -0.54753 0.37226179
-0.56061572 -0.59051532 0.51614064
-0.055004988 -0.26019317 1.0683544
-0.26716745 -0.30691785 0.9658944
-0.18843219 -0.31649971 1.0624163
-0.35373628 -0.40414804 0.42350775
-0.31273052 -0.38336343 0.62855637
-0.1178696 -0.13998401 1.0643896
0.15769683 -0.58299798 1.106479
0.17220226 -0.37801167 1.1284549
0.10092817 -0.82761467 1.0642415
-0.46805066 -0.52290577 0.58405334
-0.42103758 -0.56308377 0.35772681
-0.43233275 -0.24391305 0.67170203
-0.46990573 -0.48718959 0.24829285
-0.4292537 -0.11965711 0.72625405
-0.55493569 -0.57216954 0.40495506
-0.41885254 -0.4664923 0.4626793
-0.46568164 -0.51925081 0.55249584
-0.26178318 -0.58509099 0.4579806
-0.10548844 -0.2163284 1.0427272
-0.045698516 -0.20240933 1.0662856
-0.30195123 -0.38791052 0.64578515
-0.36765668 -0.43235302 0.67107481
-0.37404308 -0.45216879 0.65445137
-0.014239818 -0.52248985 1.0640863
-0.21179977 -0.50811553 0.51647913
-0.27307451 -0.62001103 0.43508956
