# .PCD v0.7 - Point Cloud Data file format
VERSION 0.7
FIELDS x y z
SIZE 4 4 4
TYPE F F F
COUNT 1 1 1
WIDTH 108
HEIGHT 1
VIEWPOINT 0 0 0 1 0 0 0
POINTS 108
DATA ascii
-0.18877392 -0.0015491127 0.78293282
-0.074265793 -0.0037034478 0.91854542
-0.084698588 0.12668143 0.93711311
0.018446309 0.083876491 0.93511903
0.12250164 -0.092119731 1.0277984
0.30090857 -0.0057998882 1.0223172
-0.12517214 -0.17794666 0.30737337
-0.21068084 -0.11409261 0.82852948
-0.23881334 0.17169236 0.89122617
-0.2740514 0.11428922 0.83160061
0.25162861 -0.29726464 1.0059122
-0.17568685 0.026591469 0.79831713
0.16777077 0.19075538 0.96537095
0.11367671 0.18869698 0.97667843
0.27088249 -0.032857999 1.0495461
0.23789281 -0.15914272 0.99781573
0.16196601 -0.1947569 1.0312816
-0.016281554 -0.06854026 0.97022247
0.18866734 0.0086846808 1.0252992
0.33577493 0.060445007 0.9889273
-0.14987081 -0.036123786 0.87357694
-0.13572386 -0.081386678 0.85065347
-0.10175729 0.088339545 0.87680399
-0.074341647 -0.0026186761 0.91132367
-0.062974565 -0.083774798 0.9413448
0.22604735 -0.14236665 1.0017754
0.15661232 -0.19085132 1.0022526
-0.16326261 0.010961068 0.81745952
0.26968521 -0.032343552 1.039073
0.15487914 0.21634619 0.9843064
0.22668007 0.10429705 1.0307508
0.2471607 0.031360876 1.0341495
0.32541341 -0.092913739 1.0226159
0.00044574135 0.067423038 0.93476009
0.38413465 -0.066036642 0.99346876
0.34181282 0.071372151 0.95414948
0.2177031 -0.50769287 0.91121072
0.38796282 0.049731404 0.98197395
0.34094864 0.06042831 1.0034376
0.17227463 0.19484963 0.99170053
0.11159381 0.18618461 0.96314597
0.18383117 -0.11703904 0.98080665
0.24340454 -0.16177927 1.0156999
-0.10640707 0.091073841 0.91214651
-0.093049966 -0.015297201 0.884534
-0.22089946 -0.01940812 0.76039547
0.42596337 0.036435384 0.93699491
0.31972146 0.080585703 0.99294323
0.2415324 0.029480537 1.019869
-0.10251837 0.1145394 0.92768639
0.29850566 -0.0044570011 1.0143487
0.34170845 -0.031360582 1.0120386
0.17470275 -0.051784381 0.98906851
0.040226676 0.091233499 0.95789784
0.00035111594 0.067318261 0.97480834
0.35268542 0.0055258898 0.96138591
0.25878853 0.14830083 1.0041984
0.38102448 -0.28585777 1.0130515
-0.24278346 -0.040518921 0.72371459
0.36056179 0.0039443853 0.97935182
0.37621602 -0.038049858 0.9666909
-0.0160228 -0.06917204 0.95912534
0.46303627 -0.089284606 0.93875152
-0.10618138 0.090031624 0.9023658
-0.0771956 -0.0024318891 0.96247369
0.1247313 0.19903107 0.96070302
-0.1975961 -0.0017780348 0.82380611
-0.24546999 0.0938925 0.90052819
0.051623423 -0.046635974 0.9431048
0.11386472 -0.093304604 0.98135817
0.0019294727 -0.066047929 0.96141112
0.23736309 0.087563381 1.0174145
0.23866826 0.031180577 1.0060358
0.019125981 0.082232505 0.94166356
0.13283345 0.11905895 1.0085386
0.098385289 0.071877889 0.98339808
0.16039285 0.036140863 0.98456591
0.29850566 -0.0044570011 1.0143487
0.23624191 -0.035364557 1.0261005
0.42939463 -0.18753952 0.96473485
0.22837448 -0.14221323 1.0142478
0.075523533 -0.29603601 0.5904755
-0.24952099 -0.14574525 0.46870935
-0.24348404 -0.041509699 0.72882551
-0.1853151 -0.2669273 0.43495584
0.27510375 -0.17895888 0.96655601
0.23212709 -0.14433222 1.0321708
0.15286474 -0.18867919 0.98542154
-0.19111939 0.085132718 1.0058221
-0.19371107 -0.00079353084 0.79734343
-0.11825318 0.15056096 0.93162721
0.13070185 0.05064375 0.97162902
-0.14351599 -0.25783446 0.53062958
0.31668809 0.10916654 1.0350925
0.29043636 0.077912092 1.0092117
-0.024700306 -0.88940519 1.1049211
0.048753303 0.060096398 0.98301619
-0.29516059 0.12839484 0.91556281
0.29795393 -0.0052894657 1.0194217
0.39273575 -0.069232374 1.0246962
0.041547928 -0.2149802 1.0001127
0.26012006 -0.73363304 1.2240252
0.21055113 -0.48430157 0.87397665
-0.00043386445 -0.25643402 0.87209553
0.152288 -0.28227663 0.9512732
-0.1503374 -0.03949989 0.86783993
-0.15789671 -0.22273955 0.36853775
-0.077784039 -0.14579514 0.35672536
