# .PCD v0.7 - Point Cloud Data file format
VERSION 0.7
FIELDS x y z
SIZE 4 4 4
TYPE F F F
COUNT 1 1 1
WIDTH 215
HEIGHT 1
VIEWPOINT 0 0 0 1 0 0 0
POINTS 215
DATA ascii
-0.31751186 -0.21692903 0.53386289
-0.16035724 -0.74185646 0.90428209
-0.12004115 -0.25242049 0.64296955
-0.61116803 -0.15229565 0.55305737
-0.20677094 -0.10202367 0.54370934
-0.31367919 -0.074738152 0.6490469
-0.32083654 -0.089280471 0.59742725
-0.32689419 -0.14062458 0.55435634
-0.33904716 -0.28585795 0.52725917
-0.57311094 -0.41334176 0.85627967
0.01312924 -0.17191166 0.77504593
-0.35235447 -0.14320062 0.53171796
-0.15914401 -0.053807613 0.7679798
-0.14283103 -0.088056542 0.41887659
-0.33434409 -0.75837207 0.74073118
-0.31447157 -0.21379386 0.5124197
-0.19794482 -0.010417626 0.73578256
-0.25198793 -0.071411699 0.42417297
-0.49125135 -0.14037721 0.3877745
-0.42789128 -0.24773361 0.46343863
-0.1483521 -1.0154488 1.14042
0.34228662 -2.0699499 3.6017916
0.24571422 -0.5921964 1.1709948
-0.32341051 -0.3506009 0.54584372
-0.5389927 -0.14295843 0.26265144
-0.53634512 -0.31517911 0.48335758
-0.7062546 -0.20010565 0.59036005
-0.2736927 -0.69318867 0.69575548
-0.44834968 -0.14841549 0.55203491
-0.72343981 -0.26280898 1.2484789
-0.18742894 0.040175818 0.79841715
0.14823328 -0.88268834 1.6826732
-0.5678069 -0.33286721 0.5177117
0.003029099 -0.18408418 0.7821793
-0.43412685 -0.3530587 0.4518607
-0.15968847 -0.087773122 0.66929942
-0.19627623 -0.11688188 0.48911846
-0.080859199 -0.12731935 0.65408665
-0.49366409 -0.11119667 0.3334989
-0.64071125 -0.16719903 0.51660484
-0.1056074 -0.2391623 0.63169509
-0.15493214 -0.24201579 0.51733905
-0.15221204 -0.089187846 0.57171547
-0.18108219 -0.040367186 0.76518834
-0.12777281 -0.18527929 0.62179351
-0.53189778 -0.16724819 0.5518589
-0.49933523 -0.11057029 0.57646495
-0.63967043 -0.42599562 0.47629443
-0.30446282 -0.18121305 0.61993361
-0.18118931 -0.044315942 0.7320329
-0.38916138 -0.15634793 0.56875032
-0.33585715 -0.76787692 0.7541067
0.27531856 -0.6275295 1.3797882
-0.54106563 -0.18121168 0.49425426
-0.61490792 -0.33520937 0.38931662
-0.72112125 -0.34071088 0.34955913
-0.29174897 -0.35772321 0.55306435
-0.43347001 -0.38243464 0.46381518
-0.0059366818 -0.58979791 0.87545407
-0.27512416 -0.07698901 0.50009942
-0.7211498 -0.39365086 0.46731406
0.0054634647 -0.16882667 0.75545889
-0.0093178907 -0.18075316 0.73910457
-0.5709011 -0.2037416 0.46435267
-0.13821383 -0.6027112 0.62440199
-0.022234665 -0.15168247 0.73776674
-0.29506537 -0.1263016 0.50649095
-0.27172202 -0.18928623 0.54700673
-0.32536286 -0.25117603 0.50987619
-0.47042179 -0.41092527 0.47344118
-0.54400998 -0.40651393 0.46525824
-0.10543658 -0.29083166 0.82216722
-0.52287126 -0.3075372 0.5090279
-0.096568413 -0.1999497 0.53055984
0.073812641 -0.82613081 1.2403563
-0.31186545 -0.41520166 0.56371814
-0.099844702 -0.083985262 0.67497259
-0.35905647 -0.11657375 0.58355033
-0.64385813 -0.15401977 0.59846872
-0.63951248 -0.14868186 0.55235535
-0.57283843 -0.18600357 0.48931551
-0.13291259 -0.35309932 0.65184659
-0.39587671 -0.31282875 0.56571108
-0.20709451 -0.10311184 0.53011644
-0.31790194 -0.091682464 0.644593
-0.4336206 -0.1416923 0.56080544
-0.39090088 -0.15762383 0.47028789
-0.29348317 -0.082490399 0.6462568
-0.17192324 -0.35250399 0.64336824
-0.16152798 -0.17219926 0.69918919
-0.52525854 -0.13792299 0.30279389
-0.62631184 -0.17232534 0.39684629
-0.14591981 -0.12599969 0.61003965
-0.36959976 -0.99112123 1.1368411
-0.5912379 -0.13049027 0.27259606
-0.43171287 -0.14441568 0.57102197
-0.37259161 -0.15255602 0.46609867
-0.46209478 -0.17192711 0.44220251
-0.60787791 -0.1813612 0.5372408
-0.63865954 -0.32275257 0.42082125
-0.76370883 -0.20298962 0.69542557
-0.32438588 -0.13057248 0.4954111
-0.44099012 -0.16674943 0.44067359
-0.59273589 -0.19507633 0.4673242
-0.3551853 -0.08795049 0.59215999
-0.48888704 -0.23170055 0.45078388
-0.7062546 -0.20010565 0.59036005
-0.67966485 -0.19952695 0.50713497
-0.14897856 -0.26736575 0.61530107
-0.58030242 -0.12053727 0.27114993
-0.67849112 -0.31152675 0.3999922
-0.36923096 -0.30938581 0.51695037
-0.46791196 -0.37819761 0.47235674
-0.23828806 -0.4274236 0.59627926
-0.16064936 -0.75488132 0.92771828
-0.42298985 -0.34736419 0.48037553
-0.30951902 -0.35060894 0.54321396
-0.084188238 -0.62047857 0.85736454
-0.53189778 -0.16724819 0.5518589
-0.44496742 -0.26772279 0.53503674
-0.35107264 -0.29611516 0.53195125
-0.65085691 -0.17222087 0.46047094
-0.24862809 -0.02106588 0.64600301
-0.00053842453 -0.60417527 0.90161467
-0.33434409 -0.75837207 0.74073118
-0.27172202 -0.18928623 0.54700673
-0.37382713 -0.2969707 0.41373736
-0.58467406 -0.34952775 0.40440208
-0.52539092 -0.13654703 0.48695928
-0.56570488 -0.13222519 0.44712245
0.16991511 -1.1265661 1.8330109
-0.17192324 -0.35250399 0.64336824
-0.3048262 -0.78077525 0.81314862
-0.1483521 -1.0154488 1.14042
-0.078914471 -0.65202093 0.78196824
-0.24745509 -0.12009113 0.5418855
-0.13376687 -0.15310913 0.5902313
-0.39235088 -0.082985014 0.63614106
-0.3636955 -0.11284132 0.62441629
-0.043119986 -0.053018771 0.75982648
0.19429497 -0.69243819 1.3791047
0.044440866 -0.64497769 1.1532687
-0.0092006568 -0.42436767 0.67197704
-0.11191421 -0.019474233 0.83276457
-1.1682713 -0.88604057 2.4338357
-0.31998754 -0.3178378 0.53162313
-0.29106984 -0.34635305 0.58466482
-0.34001803 -0.14061755 0.43483612
-0.29253721 -0.042254701 0.72118056
-0.30070308 -0.083424844 0.5594843
-0.26182273 -0.12750685 0.52214831
-0.32314149 -0.087858893 0.60832661
-0.48868796 -0.15540895 0.64195561
-0.39091498 -0.15710087 0.47326219
-0.12488802 -0.25218827 0.6291458
-0.16237444 -0.28702483 0.6534999
-0.18241513 -0.04162208 0.76110214
-0.49125135 -0.14037721 0.3877745
-0.55414635 -0.25982872 0.43575558
-0.2855916 -0.22587645 0.55527467
-0.20210689 -0.14943843 0.5121389
-0.19183137 -0.19010629 0.56557757
-0.5798775 -0.13450098 0.26320794
-0.022234665 -0.15168247 0.73776674
-0.060948253 -0.21743958 0.68826419
-0.31567034 -0.21877207 0.519508
-0.46498334 -0.74933881 0.67187446
-0.59844875 -0.41700688 0.87794501
0.034353048 -0.059413869 0.85220188
-0.17015724 -0.11156799 0.54179144
-0.13354215 -0.082877159 0.62558997
-0.12308154 -0.079034194 0.63414389
-0.15221204 -0.089187846 0.57171547
-0.35678077 -0.29465282 0.51741332
-0.35396409 -0.28607932 0.51512837
-0.37074399 -0.28769189 0.49476862
-0.44834968 -0.14841549 0.55203491
-0.1535054 0.019003065 0.78044552
-0.3706072 -0.151345 0.4646948
-0.31920668 -0.2528345 0.56727785
-0.29651386 -0.23377879 0.58209586
0.065803811 -0.91647553 1.5064241
-0.30098191 -0.20510654 0.53171039
-0.3285279 -0.14127411 0.58891201
-0.34024173 -0.14223215 0.51877815
-0.2723462 -0.092767231 0.69059169
-0.32672489 -0.048158567 0.69994909
-0.32652345 -0.069128349 0.60205561
-0.35235447 -0.14320062 0.53171796
-0.33951479 -0.10426946 0.58492422
-0.31158838 -0.13158476 0.52974015
0.32566977 -0.56446511 1.2178104
-0.0016519529 -0.80261236 1.1039544
-0.12972842 -0.13740045 0.60104805
-0.082398668 -0.25626332 0.31463593
-0.096568413 -0.1999497 0.53055984
-0.15885209 -0.26811087 0.60027403
-0.34142557 -0.65187728 0.65637726
0.0094959931 -0.17087114 0.76359433
0.003029099 -0.18408418 0.7821793
-0.31112325 -0.73793733 0.72342372
-0.30197406 -0.40209153 0.55411249
-0.29829174 -0.037334152 0.75961882
-0.14591981 -0.12599969 0.61003965
-0.040757738 -0.19608612 0.67602593
-0.24263856 -0.044935055 0.53842437
-0.29366565 -0.12500139 0.50205731
0.096659109 -0.32005617 0.80540091
-0.47870985 -0.084229127 0.54789883
-0.74389446 -0.18226488 0.72462851
-0.63471878 -0.13248858 0.30361712
-0.40183702 -0.30225575 0.57848626
-0.97345054 -0.51206475 0.69952315
-0.60952419 -0.35101551 0.56922948
-0.38748381 -0.10104984 0.60114765
