# .PCD v0.7 - Point Cloud Data file format
VERSION 0.7
FIELDS x y z
SIZE 4 4 4
TYPE F F F
COUNT 1 1 1
WIDTH 80
HEIGHT 1
VIEWPOINT 0 0 0 1 0 0 0
POINTS 80
DATA ascii
-0.65671217 -1.1888765 0.068594314
-0.52280629 -0.64613658 0.19911709
-0.57197553 -0.63614666 0.24239025
-0.72638291 -1.1302037 0.035026796
-0.92988467 -1.2218668 0.92252409
-0.63533616 -0.78056616 0.36586192
-0.67651874 -0.986076 -0.017602742
-1.0291008 -1.2245677 -0.18373683
-0.84699446 -1.1475806 -0.022907456
-0.55780768 -0.64146304 0.23206043
-0.73397815 -1.1233327 0.54490018
-0.71879137 -0.69918668 -0.019686196
-0.5473631 -1.1587404 0.16044445
-1.0333033 -1.2073171 -0.241844
-0.87424487 -0.63877827 -0.031335894
-0.76289988 -1.1154897 -0.013214918
-0.85709512 -0.65034521 -0.054389175
-0.6382615 -1.2650141 -0.0010833291
-0.85609961 -0.68738472 -0.090783089
-0.59846079 -1.1252929 0.12560888
-0.61463284 -1.1384382 0.11401688
-1.0562437 -1.1653813 -0.12302159
-0.88762826 -0.56108075 -0.045725789
-0.80367649 -1.0196902 0.66591704
-0.85091746 -0.33157229 -0.006455685
-0.82193238 -1.1009331 0.082582422
-0.80022836 -0.49386397 -0.086153403
-0.76326191 -0.66112691 -0.018756269
-0.88394898 -0.69506443 0.037727818
-1.2785014 -0.83509707 -0.2414954
-1.064407 -1.189237 -0.18897595
-1.0377816 -1.2523512 -0.24935614
-1.1758302 -0.90154529 -0.2105369
-1.0627487 -0.33059683 -0.22751549
-0.67638367 -0.44881532 -0.052528702
-0.97631788 -1.0812021 -0.12174305
-0.82888794 -0.40019074 -0.15063731
-0.86228925 -0.41923365 -0.13517478
-0.78504044 -0.92252761 0.41470116
-0.96667951 -1.3914618 0.91886938
-0.56118643 -0.73737317 0.091050982
-1.2269568 -0.9453795 -0.2028064
-1.1944877 -1.2028978 -0.21899171
-1.1292393 -0.27595115 -0.21490842
-0.92978531 -1.1151973 -0.051005315
-1.0588744 -1.1411351 -0.061217517
-0.69938916 -1.0493932 0.052181721
-1.1242054 -1.0682592 -0.16407652
-1.1636397 -0.94644576 -0.22182341
-0.85537237 -0.66416728 -0.1001671
-0.87362218 -0.63686943 -0.030966187
-0.85480469 -0.68373489 -0.085585177
-0.57827282 -1.257454 0.033022895
-0.80497605 -1.1453499 -0.14593667
-0.79473358 -1.0719203 -0.15109222
-0.63327152 -0.70696795 0.068422668
-1.1302609 -0.41695076 -0.15851571
-0.8670786 -0.62847507 -0.035820607
-0.85213727 -0.57181519 -0.016202925
-0.84473795 -0.35955244 -0.11312077
-0.59833771 -1.233572 0.16155323
-1.3851428 -0.90467715 -0.22343777
-0.81972945 -0.64224946 -0.012496396
-1.1408058 -0.32560942 -0.18754826
-0.74777186 -0.68328661 0.080258563
-1.0558341 -1.011953 -0.32839963
-0.64740813 -0.4924444 0.16135539
-0.59874475 -0.73882896 0.35929057
-0.83119577 -0.68504888 -0.089883648
-0.99031669 -1.1747801 -0.25153682
-0.5631423 -0.66039729 0.12764262
-0.72770983 -0.67955089 0.014376976
-0.78081089 -0.68406457 -0.045574453
-0.62714696 -1.1348032 0.097131215
-0.71629542 -1.1149559 0.071189553
-1.6124586 -1.1157789 -0.20647763
-1.1015981 -1.1694834 -0.22710697
-0.65815622 -0.69771951 0.055308651
-0.78212494 -0.46363518 -0.12838511
-0.99771696 -1.0806992 -0.091427311
