# .PCD v0.7 - Point Cloud Data file format
VERSION 0.7
FIELDS x y z
SIZE 4 4 4
TYPE F F F
COUNT 1 1 1
WIDTH 56
HEIGHT 1
VIEWPOINT 0 0 0 1 0 0 0
POINTS 56
DATA ascii
-0.3550576 -0.26259711 0.95220619
0.20728748 0.11061642 1.0070643
0.33342946 0.08487381 1.0879145
0.056389116 0.2810488 0.92125982
0.081112795 0.22222254 0.91027308
0.46527761 0.12863003 0.88765496
0.32099244 0.20812038 1.0608652
0.12263905 0.16675492 0.9848671
0.61215591 0.93599242 2.4005444
0.58394027 -0.48210657 1.2550695
0.4454264 -0.20764275 0.80717748
0.30419019 0.19267206 1.0063235
0.28652614 0.096091859 1.0661253
0.47115844 -0.067545414 1.1803579
0.21335568 0.08240255 1.0281267
0.1217472 0.16520883 0.97425294
-0.12407788 -0.095290519 1.0638047
0.34198377 0.17723109 1.0713699
0.28511825 0.096919462 1.0644724
0.35013491 0.085733742 0.94117427
0.052659214 -0.068296097 1.0613728
0.048984084 -0.11090538 1.0757868
0.0080459686 -0.18951358 1.1279786
0.23421821 0.26289314 0.99609053
0.22164467 0.2026747 0.99717987
0.58360219 -0.10544134 1.0173544
-0.060486883 0.11677665 0.95914584
-0.119028 0.097116679 0.98301464
0.35525137 -0.074319758 1.1037805
0.30366659 -0.16292463 1.1578658
-0.10663962 -0.14236134 1.0453629
0.099989995 0.31766918 0.97276109
0.083090864 0.22188678 0.92597985
0.18372139 0.32013533 0.97128683
0.23834096 0.3239674 1.0365859
0.17443027 0.25633857 0.97950822
0.34609383 0.2075422 0.86524367
0.16300307 0.20567439 0.41588297
0.48286384 0.13111344 0.91644651
0.37964433 -0.20925722 1.1617763
1.0740355 -0.011006218 1.7853065
-0.40364182 -0.27379623 0.89359123
-0.028356768 -1.2614484 2.2027597
0.36076567 -1.1793172 1.9247361
-0.36858279 -0.53131592 0.83747828
0.24963768 0.21213306 0.9859094
0.19014174 0.29881623 1.0065842
-0.49172595 0.08430513 1.3601313
-0.17846601 0.16952932 0.80176371
0.11370217 0.33434576 0.87246436
0.085430913 0.25471264 0.94607764
0.15420577 0.20515822 0.98606694
0.13504761 -0.44554228 1.177569
-0.184687 -0.08904887 0.97189349
0.29939157 0.11273202 1.0472897
0.51013124 0.13954641 0.98375791
