# .PCD v0.7 - Point Cloud Data file format
VERSION 0.7
FIELDS x y z
SIZE 4 4 4
TYPE F F F
COUNT 1 1 1
WIDTH 158
HEIGHT 1
VIEWPOINT 0 0 0 1 0 0 0
POINTS 158
DATA ascii
-0.65948349 -0.4519718 0.16263199
-0.71714562 -0.5886851 0.16569173
-0.70233715 -0.81596255 0.37526646
-0.65139276 -0.99040258 0.005013918
-0.52280629 -0.64613658 0.19911709
-0.64684445 -0.46154931 0.1374907
-0.4127017 -0.71187913 -0.0007214892
-0.51941341 -0.42384732 -0.17840239
-0.75951582 -0.95948505 0.78976685
-0.47113904 -0.6976974 0.18893342
-0.6318357 -0.69930816 0.23843318
-0.561544 -0.62032402 0.078495637
-0.99006057 -0.62869531 0.46449664
-0.29292318 -1.0396709 0.26935703
-0.65557992 -0.6791057 0.15068421
-0.49273983 -0.43753061 0.25796092
-0.68014377 -0.53201842 0.28220618
-0.68565184 -0.63210273 0.057396475
-0.56724817 -0.75287026 0.063896656
-0.1199033 -0.82852405 0.44878331
-0.85709512 -0.65034521 -0.054389175
-0.85537237 -0.66416728 -0.1001671
-0.64203548 -0.54537541 0.3663063
-0.60972178 -0.5891397 0.1417136
-0.92988467 -1.2218668 0.92252409
-0.51896864 -0.57863712 0.29321784
-0.68971211 -0.69110602 0.027113382
-0.64494914 -0.53725308 0.19740722
-0.6989035 -0.81135291 0.37097687
-0.63533616 -0.78056616 0.36586192
-0.56220078 -0.72197783 0.11935149
-0.66011906 -0.59652942 0.064742312
-0.64206278 -1.3171684 0.21434547
-0.6221835 -0.74708617 0.061420016
-0.34256625 -1.2285982 0.60843843
0.064566858 -1.1720952 1.2106737
-0.79494447 -1.1446639 0.016995417
-0.26698604 -0.9582513 0.42967889
-0.8826248 -0.58610636 -0.011502628
-0.38292736 -0.96169388 0.26812741
-0.76247591 -0.97487789 0.61364967
-0.47395667 -0.53663838 0.30332392
-0.80738848 -1.0692537 0.068801612
-0.80322886 -0.6257543 0.025888892
-0.8393392 -0.69037193 -0.087615788
-0.3760924 -0.51777965 0.32105854
-0.473849 -0.57815289 0.46687639
-0.44072959 -0.57293063 0.29409859
-0.69249129 -0.65626746 0.088391803
-0.66214377 -0.53211224 0.18865214
-0.5292927 -0.47352904 0.36619386
-0.3021982 -0.54985285 0.37045652
-0.35321185 -0.53775185 0.35064849
-0.25044876 -0.93929923 0.42619583
-0.24504355 -1.1351787 0.54092425
-0.4880631 -0.75066721 0.16319352
-0.7181741 -0.58864546 0.16413793
-0.51772612 -0.56062043 0.27071872
-0.64098597 -0.69290882 0.070664771
-0.69863713 -0.67618626 0.058887325
-0.38128528 -0.58983922 0.32295695
-0.66194808 -0.69718885 0.042479169
-0.53154105 -0.64833975 0.18894951
-0.39440092 -0.54325444 0.31269655
-0.95727664 -1.2505666 1.049078
-0.48155051 -0.51879793 0.20544803
-0.28505662 -1.1243627 0.49405128
-0.87115049 -0.61037278 0.12444712
-0.71785444 -0.58963549 0.1666951
-0.92855155 -0.62654227 -0.054527286
-0.84904176 -0.64903116 0.37372974
-0.71509689 -0.6964274 -0.024039052
-0.3760924 -0.51777965 0.32105854
-0.47241652 -0.42268145 0.28342247
-0.32155034 -0.61886078 0.37059027
-0.53559136 -1.2625436 0.37613201
-0.52271593 -1.1594776 0.18431664
-0.74299717 -0.67219186 -0.014180926
-0.57905495 -0.47408143 0.19791983
-1.3532968 -1.0554044 1.529814
-0.74450976 -0.52095777 0.18785372
-0.89147836 -0.62669384 0.58557433
-0.59874475 -0.73882896 0.35929057
-0.87362218 -0.63686943 -0.030966187
-0.46332654 -1.022077 0.22394025
-0.64962626 -0.55489677 0.18010242
-0.072290413 -1.0276591 0.93051773
0.020659493 -1.0767496 1.1581297
-0.33537644 -0.66187376 0.32270205
-0.52069724 -0.58243924 0.2972053
-0.38509998 -0.58303398 0.34557402
-0.74777186 -0.68328661 0.080258563
-0.86627704 -0.66305387 -0.073063761
-0.87068218 -0.68795675 -0.085430585
-0.80022836 -0.49386397 -0.086153403
-0.66232908 -0.53133589 0.1868971
-0.68735504 -0.62913364 0.095514208
-0.82927269 -0.66072541 -0.011761279
-0.82270306 -0.68545395 -0.05939788
-0.64155895 -0.75211167 0.058610711
-0.45879975 -0.75540155 0.19284971
-0.52879417 -0.46609277 0.29349181
-0.71722037 -0.6490823 0.16697739
-0.5039137 -0.73159832 0.2444247
-0.6330961 -0.52478939 0.24133518
-0.64373416 -0.55233812 0.19425516
-0.5522306 -0.67448181 0.17247261
-0.72770983 -0.67955089 0.014376976
-0.55790836 -0.70240265 0.1356857
-0.52510232 -0.72596776 0.14075679
-0.54458356 -0.73652256 0.12058009
-0.65404814 -0.74163198 0.17106184
-0.71638465 -0.71831256 0.18219052
-0.25344995 -0.8169381 0.28432208
-0.27055362 -1.0051064 0.41267848
-0.68910277 -0.50968742 0.1323093
-0.82258308 -0.60948187 -0.048814062
-0.34980789 -0.59262151 0.33068338
-0.6700182 -0.7228545 0.00077923847
-0.51101667 -0.71978432 0.19329034
-0.90876448 -0.52474147 -0.05342437
-0.84305352 -0.65309811 -0.069480427
-0.88582844 -1.0935671 -0.047671702
-0.6383732 -0.48815456 0.24332941
-0.62371737 -0.69001764 0.2274413
-0.66543281 -0.62828803 0.05892738
-0.8826248 -0.58610636 -0.011502628
-0.57574767 -1.1471636 0.15434046
-0.80796432 -0.91890478 0.56948501
-0.38039085 -0.58696431 0.31468725
-0.31862885 -0.66369867 0.32127073
-0.41137451 -0.71887535 0.23812078
-0.70274103 -0.82608283 0.3566415
-0.18083265 -1.1198773 0.51941955
-0.014181448 -1.2551092 1.2271129
-0.37387747 -0.67467779 0.29203546
-0.42596722 -0.58742964 0.28467262
-1.014304 -0.61197227 0.13611221
-0.68184805 -0.49952903 0.13863151
-0.88959873 -0.60225624 0.010202579
-0.8132835 -0.63740575 0.12030911
-0.51021135 -0.6445654 0.18666787
-1.1211139 -1.0777129 -0.10885116
-0.71087706 -0.68518287 0.021764353
-0.4015477 -0.65312475 0.25632355
-0.8501628 -0.66725516 -0.076781161
-0.83119577 -0.68504888 -0.089883648
-0.87593406 -0.7132256 -0.093331613
-0.82193238 -1.1009331 0.082582422
-1.0438033 -1.166563 -0.080266178
-0.63327152 -0.70696795 0.068422668
-0.56118643 -0.73737317 0.091050982
-0.41636392 -1.1498045 0.44842723
-0.44659457 -1.2278582 0.30664092
-0.72617584 -0.70005071 0.019091696
-0.41932335 -0.49370515 0.3159005
-0.75882518 -0.58030605 -0.066689268
-0.67385328 -0.75116378 0.037092108
