# .PCD v0.7 - Point Cloud Data file format
VERSION 0.7
FIELDS x y z
SIZE 4 4 4
TYPE F F F
COUNT 1 1 1
WIDTH 76
HEIGHT 1
VIEWPOINT 0 0 0 1 0 0 0
POINTS 76
DATA ascii
0.2541604 -0.41697937 1.1386924
0.17191008 -0.14331138 1.0518616
-0.092314549 -0.15442522 1.0173535
0.26342624 0.37940401 1.0991633
0.2436651 -0.27126983 1.0619993
0.024332236 -0.11078486 1.0322156
0.065115973 -0.17739409 1.0506818
0.10361552 0.15427916 1.00264
0.31692469 -0.63591129 1.1836005
0.05392392 0.32302728 1.0555743
-0.091830269 -0.15642524 1.0187031
0.080216043 -0.33799025 1.1072735
0.38281131 0.081198446 1.1351119
0.16584659 -0.30067834 1.0993075
-0.3191095 -0.3806102 0.61393726
-0.073034883 0.11110608 0.9569934
0.16374812 -0.8716045 1.0909662
0.70037287 -0.41401422 1.4404948
0.15126614 -0.38494369 1.1242957
-0.28565761 -0.43241549 0.46276394
-0.27138954 -0.20864178 0.84203541
0.11831979 0.36409444 1.0395553
-0.17496744 -0.042225126 0.95250553
-0.036118679 0.18342187 0.95163953
-0.42728007 -0.51317883 0.73706138
0.18827334 -0.16416843 1.0896273
0.13656506 -0.20054434 1.0858985
0.24957359 -0.16134165 1.0625247
0.30936965 -0.19543304 1.0431046
0.21882574 0.15200363 1.0791916
-0.12100774 -0.13772951 1.0091543
0.11483864 -0.18557969 1.0834762
0.11041763 0.20480956 1.0033293
0.067585178 0.15812531 0.98940432
0.097223386 0.11805677 1.0100354
0.2130208 0.028859507 1.1506402
0.02218543 0.035760187 1.0008889
0.72537106 -0.24684119 1.4279636
0.32788166 -0.65091377 1.1834141
-0.238921 -0.27303967 0.86149627
-0.14727062 -0.46526343 0.76843774
0.18827334 -0.16416843 1.0896273
0.4365038 -0.086066477 1.1781271
0.072593331 0.2443683 0.98728138
0.27592549 0.14495918 1.0614513
0.28524631 0.099303395 1.0907158
0.25947997 0.081788287 1.0740535
0.20527638 0.18796118 1.0363684
0.66152847 -0.22532021 1.3127826
-0.15405741 -0.082520396 0.96082336
0.18107325 -0.75194585 1.3465742
0.13660285 0.058772456 1.0451905
0.17730565 -0.029075185 1.0670496
-0.026356466 -0.033336975 1.0160409
0.3281543 0.16013938 1.1213418
0.33154812 -0.37789619 1.0265703
0.34578636 -0.63772792 1.1642528
0.33087066 -0.37776634 1.1237342
-0.38652411 -0.38223293 0.7430163
-0.32412249 -0.33255449 0.83470047
-0.32745725 -0.13681883 0.75207323
0.25006741 -0.89955592 1.3123724
-0.041653931 -0.34149897 1.0964173
-0.41324797 -0.47926912 0.59536868
-0.0029646088 0.15080097 0.98847032
0.0044752317 -0.05226855 1.0099167
-0.016372608 -0.18128711 1.0544891
-0.12123245 -0.1376252 1.0013967
0.25995487 -0.41803885 1.1560659
0.64880204 0.154983 1.3519866
0.30727378 -0.25915366 1.0476155
-0.238921 -0.27303967 0.86149627
-0.087153234 -0.24124122 1.0355295
-0.040421937 -0.34245539 1.0992402
-0.42203951 -0.51115417 0.83029914
-0.47489601 -0.53934318 0.65584719
