# .PCD v0.7 - Point Cloud Data file format
VERSION 0.7
FIELDS x y z
SIZE 4 4 4
TYPE F F F
COUNT 1 1 1
WIDTH 119
HEIGHT 1
VIEWPOINT 0 0 0 1 0 0 0
POINTS 119
DATA ascii
-0.56572634 -0.8726306 0.054789364
-0.63533616 -0.78056616 0.36586192
-0.50618029 -0.57627362 0.16511923
-0.67927361 -0.82333559 0.35857934
-0.51941341 -0.42384732 -0.17840239
-0.66252446 -0.74519753 0.073737085
-0.88959873 -0.60225624 0.010202579
-0.65139276 -0.99040258 0.005013918
-0.98404872 -1.1810267 -0.16251829
-0.41470426 -0.72709984 0.2438014
-0.6594671 -0.69231206 0.11563173
-0.55780768 -0.64146304 0.23206043
-0.78455478 -1.0303385 0.57511055
-0.67410588 -0.67166281 0.098811209
-0.65671217 -1.1888765 0.068594314
-0.85555691 -0.60552669 -0.071506478
-0.87424487 -0.63877827 -0.031335894
-0.68565184 -0.63210273 0.057396475
-0.85537237 -0.66416728 -0.1001671
-0.91294175 -1.1563696 -0.060657591
-0.48502076 -1.0712729 0.25061423
-0.45955062 -0.64124358 0.23809978
-0.84507906 -1.1682895 -0.0010109155
-0.73667866 -1.1264422 0.002321854
-0.67274201 -1.1144445 0.085171804
-0.35104838 -1.0589662 0.39626864
-0.62523675 -0.72181702 0.3240242
-0.65557992 -0.6791057 0.15068421
-0.51870877 -0.56365573 0.15827163
-0.85709512 -0.65034521 -0.054389175
-0.66008991 -0.67934918 0.065075487
-0.5473631 -1.1587404 0.16044445
-0.62934381 -0.698753 0.062220104
-0.66194808 -0.69718885 0.042479169
-0.73397815 -1.1233327 0.54490018
-0.59803843 -1.23125 0.069071762
-0.70274103 -0.82608283 0.3566415
-1.1251328 -1.0647897 -0.16239423
-1.196676 -0.9969762 -0.18728118
-0.65404814 -0.74163198 0.17106184
-0.88504577 -0.41308755 -0.12212288
-0.8435387 -0.53309298 0.032306761
-1.3514667 -0.35859019 -0.16667171
-0.59997183 -1.0706394 0.04980325
-0.5139789 -0.75498408 0.21506128
-0.77962744 -0.70396423 -0.013859785
-0.74777186 -0.68328661 0.080258563
-0.53154105 -0.64833975 0.18894951
-0.59909642 -0.64554763 0.20173305
-0.79552317 -0.5359484 -0.042849865
-0.64155895 -0.75211167 0.058610711
-0.92855155 -0.62654227 -0.054527286
-0.85998112 -0.61343718 -0.039134476
-1.0161612 -1.1372211 -0.11106223
-0.79494447 -1.1446639 0.016995417
-0.76247591 -0.97487789 0.61364967
-0.70782965 -0.683016 0.018619282
-0.59846079 -1.1252929 0.12560888
-0.85554081 -0.63743097 -0.0610765
-0.8393392 -0.69037193 -0.087615788
-0.52510232 -0.72596776 0.14075679
-0.81661522 -0.96430033 -0.054570995
-1.1758302 -0.90154529 -0.2105369
-1.2694966 -0.80565989 -0.24281158
-1.0844266 -1.0454329 -0.32920319
-0.68485129 -0.33986512 -0.17602344
-0.89327192 -0.63985056 -0.11338518
-0.90702999 -0.96514952 0.30329025
-0.47149089 -0.70247477 0.19603144
-0.56118643 -0.73737317 0.091050982
-0.48680648 -0.65610582 0.24132988
-1.6124586 -1.1157789 -0.20647763
-1.064407 -1.189237 -0.18897595
-0.80206674 -0.63583493 0.065634325
-0.83119577 -0.68504888 -0.089883648
-0.59874475 -0.73882896 0.35929057
-0.5494622 -0.60010064 0.19696215
-0.88394898 -0.69506443 0.037727818
-0.76326191 -0.66112691 -0.018756269
-0.90953225 -0.5369733 -0.029506059
-0.84305352 -0.65309811 -0.069480427
-0.85480469 -0.68373489 -0.085585177
-0.87593406 -0.7132256 -0.093331613
-0.87288314 -0.67578304 0.022647465
-0.87362218 -0.63686943 -0.030966187
-0.80022836 -0.49386397 -0.086153403
-0.86642623 -0.56709003 -0.079242371
-0.64565873 -0.31975776 -0.218748
-0.82778317 -1.0728055 -0.031331055
-0.44659457 -1.2278582 0.30664092
-0.62714696 -1.1348032 0.097131215
-0.57271916 -1.134275 0.1499103
-0.75663131 -0.6983391 -0.038226038
-0.48753929 -1.1624379 0.2985985
-0.57827282 -1.257454 0.033022895
-1.3851428 -0.90467715 -0.22343777
-0.85671878 -0.34090933 -0.19794981
-1.2785014 -0.83509707 -0.2414954
-0.87100148 -0.56970179 -0.08671201
-0.84861255 -0.3250075 -0.14555334
-0.81972945 -0.64224946 -0.012496396
-0.92079657 -0.27543178 -0.24854644
-0.99756247 -0.37808844 -0.19396751
-1.1242054 -1.0682592 -0.16407652
-0.64288908 -0.27643484 -0.14964122
-0.65308028 -0.28492081 -0.13932911
-0.87429541 -0.69788456 -0.10753367
-0.87068218 -0.68795675 -0.085430585
-0.96155745 -0.99447078 -0.21532474
-1.0377816 -1.2523512 -0.24935614
-0.27721947 -1.0386827 0.43524826
-0.85208684 -0.64532584 -0.022030184
-0.80796432 -0.91890478 0.56948501
-0.52271593 -1.1594776 0.18431664
-0.86627704 -0.66305387 -0.073063761
-1.1292393 -0.27595115 -0.21490842
-1.1211139 -1.0777129 -0.10885116
-0.98380864 -1.152426 -0.18921691
-1.1532037 -1.8217422 1.3529911
