# .PCD v0.7 - Point Cloud Data file format
VERSION 0.7
FIELDS x y z
SIZE 4 4 4
TYPE F F F
COUNT 1 1 1
WIDTH 66
HEIGHT 1
VIEWPOINT 0 0 0 1 0 0 0
POINTS 66
DATA ascii
0.49883959 0.4975794 1.1183841
0.34726882 -0.8182686 1.4753737
0.33347571 0.3580175 1.0564063
0.25732058 0.33798063 1.0532596
0.28649506 0.21330406 1.0967594
0.66338384 -0.38187721 1.3636562
1.002318 0.13364993 1.5616034
0.41011804 0.30120796 1.066587
0.43206516 -0.26235658 1.206407
-0.22850129 -0.74847198 1.259096
0.16621515 -0.85862643 1.2785462
0.80482686 0.58034045 1.2529869
0.37467304 0.40662917 1.0415894
0.55752885 -0.56983411 1.3056463
0.21746285 0.57225835 1.1190871
-0.6225484 -0.76639253 1.6920171
0.042379774 0.10914037 1.1393722
0.8783434 -0.044090189 1.3075517
0.2660321 0.34674898 1.094514
0.51176119 0.39577785 1.1147466
0.47505915 0.22665735 1.1141893
0.86963642 -0.27270746 1.5632203
0.51477969 0.054101836 1.1376537
0.72598857 -0.1600031 1.2939693
0.43984234 -0.56590319 1.3585929
0.41284207 0.30553123 1.0768672
0.45015019 0.27738824 1.0931263
-0.29462484 -0.24237512 0.95777833
0.84121037 0.091385849 1.34124
-0.33744413 -0.38462773 0.78146023
0.32225245 0.11871453 1.1162113
0.14979811 0.25638905 1.1267382
0.80558771 -0.029287091 1.3467098
0.6035614 -0.056645416 1.0963361
0.58063316 -0.13850626 0.98666227
0.42933831 0.47148287 1.0200627
-0.092800394 -0.43816429 1.2075353
0.21639268 0.39967915 1.0512259
0.30210435 0.34712934 1.0672814
0.19118203 0.31145296 1.0615191
0.28838241 0.27545545 1.0687008
0.36137033 0.22876205 1.114055
0.51505458 0.39599866 1.1216227
0.62427557 0.26924789 1.0709413
0.46887353 0.19477193 1.1001958
0.38871935 0.55751109 1.0589098
0.31294197 0.40415803 1.0387731
1.0357351 -0.18765841 1.3824852
0.5698688 -0.58483106 1.3374722
-0.18063383 -0.015106305 1.0580945
-0.23944376 -0.22517687 1.0878247
-0.11052153 0.16864763 0.95610607
0.28019822 -0.8892743 1.4241738
0.46598631 -0.57899833 1.395332
0.25258833 -0.51208758 1.3019013
0.39415529 0.281454 1.0862993
0.21633671 0.3969495 1.0393512
0.393278 0.54864967 0.9964788
0.83487922 -0.25513533 1.4808679
0.23120749 0.35719532 1.0746932
-0.26280659 -0.28992131 0.71490544
0.31318438 0.40861514 1.0460829
0.58501852 -0.59500897 1.3653197
1.0922303 -2.5028865 4.5398173
0.18905835 -0.32631516 1.2621574
-0.14628014 -0.29153416 1.0879383
