# .PCD v0.7 - Point Cloud Data file format
VERSION 0.7
FIELDS x y z
SIZE 4 4 4
TYPE F F F
COUNT 1 1 1
WIDTH 81
HEIGHT 1
VIEWPOINT 0 0 0 1 0 0 0
POINTS 81
DATA ascii
0.29011083 0.17470625 1.0151502
0.20142822 0.11775131 1.0708318
0.31680048 -0.69372237 1.2465962
0.1465652 0.067327872 1.0656233
0.42437759 -0.16774562 1.0819857
0.37528732 -0.19701187 1.1139177
0.1927686 0.11501081 1.0202901
0.34057221 0.22220889 1.0289741
0.27280763 -0.071552105 1.1074778
0.044012222 0.10807308 1.0072591
0.60520643 0.87165225 1.6576251
0.031531729 -0.19077353 1.1120119
-0.052709647 0.21622463 0.9118951
0.63447398 -0.66947931 1.5257083
0.13170151 -0.11911626 1.0613824
0.23661013 -0.15500031 1.0859613
0.41062737 0.031337112 0.9938243
0.3395521 -0.76384073 1.4397306
0.16882767 0.25092474 0.94537818
0.99814957 -0.18580657 1.3292699
0.043644786 0.10923293 0.99991238
-0.27230543 -0.23226552 0.79424578
-0.22449563 -0.26285562 0.83296955
0.33546939 0.2178283 1.0090623
0.99733329 0.71169198 1.309294
0.49247605 0.38083243 1.0451924
0.12261314 0.4153094 0.85845321
0.59688807 -0.32814166 1.2110977
0.49138436 0.059860025 1.0754027
0.024683489 -0.048609346 1.021264
0.72473067 -0.53401512 1.425607
-0.073933542 0.086241193 0.96495974
-0.063419014 0.047934759 0.97601789
-0.053976741 0.11135221 0.95544535
0.74319166 -0.4764415 1.5467863
-0.059780866 0.22743708 0.94931924
0.6537981 0.10249025 1.1137393
0.52871406 0.059630949 0.95899719
0.30096349 0.4463307 0.98433554
0.30394974 0.3933672 0.98403221
0.29095054 0.33769202 1.0047531
0.25048253 0.47446898 0.92960364
0.39742354 0.053305048 1.0581945
0.39302236 0.33802509 1.0590532
0.44553521 0.27781644 1.0649959
0.35174227 0.23440184 0.99752325
1.0801586 -0.025525071 1.7809774
0.86409622 -0.23499541 1.5639881
0.18040219 0.29253468 0.95517015
0.77632576 -0.22606196 1.3812681
0.25800884 -0.02035626 1.0442258
0.043644786 0.10923293 0.99991238
0.29156673 0.28957435 0.99637979
0.22255793 0.2157509 0.9972381
0.20572406 0.12094263 1.1535209
0.11361862 0.11795028 0.95141494
1.1524764 0.81611097 1.5290273
0.49247605 0.38083243 1.0451924
0.74927157 0.32590503 1.2754413
0.40524894 0.56405449 1.0124224
0.13507627 0.49368039 0.92637742
0.41705486 0.39755443 1.0154269
0.52443922 -0.51770473 1.2111529
-0.51327723 -0.24628094 0.88800055
-0.25608072 -0.20109703 0.83547187
0.38066182 -0.47715023 1.203127
0.20537609 -0.056063652 1.0504074
0.031531729 -0.19077353 1.1120119
0.20782495 -0.50027871 1.1270374
0.26433334 -0.020644341 1.0799648
0.90852827 -0.12976618 1.5090399
0.59146464 -0.32250574 1.1989703
0.019198131 0.025921999 1.0046034
-0.20796661 -0.18413892 0.95075113
1.4756864 0.62773144 1.8745642
0.22306515 0.56675869 0.95876014
0.25305107 0.42020324 0.96347582
0.43286854 -0.4916907 1.2043989
0.13192703 -0.59754539 0.8628642
0.20536961 -0.05470378 1.0515261
-0.099464796 -0.3382307 0.62896359
