# .PCD v0.7 - Point Cloud Data file format
VERSION 0.7
FIELDS x y z
SIZE 4 4 4
TYPE F F F
COUNT 1 1 1
WIDTH 131
HEIGHT 1
VIEWPOINT 0 0 0 1 0 0 0
POINTS 131
DATA ascii
-0.98874676 -0.54866076 -0.04449667
-0.62506378 -0.36329663 0.07968387
-1.0178653 -0.53714597 -0.16094787
-0.80883676 -0.23862721 0.018799443
-0.6334008 -0.28304541 0.080795616
-0.99099767 -0.57142484 -0.072516486
-0.77091563 -0.044759016 -0.077910677
-1.1732601 -0.45516345 -0.19097452
-0.50884295 -0.20462644 -0.0027822726
-0.64657933 -0.42856151 0.43182296
-0.69364142 -0.36654305 0.20051229
-0.74160075 -0.66563272 0.016294254
-0.55915046 -0.23149067 -0.032965839
-0.63330406 -0.21485326 0.23632273
-0.56441832 -0.29737541 0.20782915
-0.65055829 -0.39544055 0.2640909
-0.67077154 -0.20690899 0.26468936
-1.2255142 -0.31560832 -0.14320613
-0.83885515 -0.65443689 0.036095601
-1.0898526 -0.36197749 -0.13568126
-0.70025039 -0.33471724 0.027415095
-0.81864452 -0.66332096 0.084005982
-0.66397351 -0.16119133 0.13556284
-0.76115507 0.049424589 -0.10893812
-0.54036409 -0.32922822 0.22612813
-0.78595263 -0.64958203 0.020728052
-1.1423858 -0.66830361 -0.16998774
-0.88450408 -0.56950617 -0.021291247
-1.1563102 -0.77456242 -0.069863945
-0.65546536 -0.36713541 0.21491732
-0.63783902 -0.37683538 0.26684186
-0.80965739 -0.27556464 0.066033944
-0.71203429 -0.012103896 -0.055564445
-0.55222374 -0.12846641 0.16997974
-0.74382371 -0.20046569 0.11419159
-0.81118703 -0.24207585 0.019154312
-0.79632348 -0.27028021 -0.0252511
-0.81034136 -0.28923595 -0.046174135
-0.71290147 -0.12385828 0.058081437
-0.82443744 -0.19506773 -0.031126892
-0.62571871 -0.36295798 0.079720564
-0.56917375 -0.59433568 0.14679809
-0.75122178 -0.62497532 0.068675876
-1.030533 -0.47620508 -0.092817657
-0.70442718 0.058488488 -0.055277299
-0.65263152 0.058734722 -0.043780904
-0.84113574 -0.563398 0.008653108
-0.87141705 -0.60638732 0.0028740787
-0.57841116 -0.21925797 0.20596635
-0.87873191 0.015619888 -0.11127545
-0.79525959 -0.26939204 -0.024805846
-0.67992413 -0.31763139 0.056167483
-0.78915769 -0.26105079 -0.044992805
-0.37250587 -0.14628737 -0.1553791
-0.68284798 -0.7235046 0.089407995
-0.51526952 -0.35072723 0.25050926
-1.1694293 -0.27643278 -0.15410055
-1.0052564 -0.46350825 -0.079081811
-0.73471051 -0.0097972872 -0.090496831
-0.47788599 -0.39517751 0.19079219
-0.63016176 -0.35651571 0.041456293
-0.40469792 -0.2894119 0.24839553
-0.57107252 -0.1096065 0.0039179889
-0.73418444 -0.098575905 0.0011072053
-1.1362981 -0.38707417 -0.14022882
-0.81118703 -0.24207585 0.019154312
-0.71595448 0.099593394 -0.079354227
-0.9451707 0.081534572 -0.088899724
-0.46923122 0.01629097 -0.15985835
-0.55647612 -0.41451204 0.13688634
-0.82041889 -0.16627052 -0.0010890863
-0.78245336 -0.24786797 0.019071415
-0.53770804 -0.3111957 0.19816266
-0.62719852 -0.32212836 0.085907117
-1.0092151 -0.62149876 -0.12777442
-0.96197146 -0.54333526 -0.16293494
-0.93158191 -0.37766004 0.14563811
-1.0639133 -0.49229223 -0.10180984
-1.0178653 -0.53714597 -0.16094787
-1.0218921 -0.47206691 -0.21667977
-0.54567266 -0.26869622 0.25606838
-0.47931418 -0.27405646 0.26844528
-0.79701525 -0.177907 0.0019843257
-0.65090525 -0.21253258 0.21759111
-0.30082873 -0.026216576 -0.20525353
-0.9622224 -0.58082652 -0.18550201
-0.82241333 -0.29783547 -0.043501597
-0.66336668 -0.71666849 0.14474851
-0.63117635 -0.72482365 0.12310027
-0.56389469 -0.5869953 0.14188783
-0.80230039 -0.64561588 0.043384165
-0.73666054 -0.052078549 -0.075610556
-0.77659315 0.095476232 -0.098956466
-1.0058237 -0.60754508 -0.021123607
-1.0128225 -0.5939588 -0.060789686
-0.71223056 -0.49135569 0.4443942
-0.98448277 -0.58624458 -0.17471039
-1.1474584 -0.67428422 -0.11790866
-0.44072047 -0.32583186 0.30037051
-0.38599536 -0.28470686 0.24653693
-1.0294216 -0.58801544 -0.13176528
-0.87291157 -0.18689366 -0.014329419
-0.80915022 0.018777769 -0.11228345
-0.80743241 -0.26040673 -0.019097907
-1.029918 -0.6414147 0.0011229116
-0.76226962 -0.24193808 0.028655678
-0.63436049 -0.28720239 0.097290404
-1.1835948 -0.32162243 -0.15631044
-0.70142382 0.11355152 -0.062969737
-0.83111793 0.1092132 -0.13212009
-0.85306215 0.062647052 -0.15185522
-0.79555565 -0.2018306 0.049880821
-0.57618421 -0.32000318 0.11477075
-0.76204133 -0.20450151 -0.076442979
-0.66812426 -0.088674426 -0.053009968
-0.78976631 -0.25958014 -0.015760921
-0.5099082 -0.38106889 0.16150239
-0.58271891 -0.33367267 0.20107433
-0.43162665 -0.42574728 0.22503585
-0.59399354 -0.29272431 0.17411289
-0.90085232 -0.55822831 -0.028675448
-1.0758611 -0.49965096 -0.1012846
-0.65110558 -0.24099596 0.17621744
-0.67736191 -0.32471296 0.082970925
-1.0323323 -0.58279037 -0.074788973
-0.56862003 -0.35353056 0.10690828
-0.52141953 -0.33716902 0.16215642
-0.75056928 -0.61968112 0.06703008
-0.93613011 0.13528611 0.022774683
-1.030533 -0.47620508 -0.092817657
-1.0893334 -0.36294174 -0.13482466
