# .PCD v0.7 - Point Cloud Data file format
VERSION 0.7
FIELDS x y z
SIZE 4 4 4
TYPE F F F
COUNT 1 1 1
WIDTH 60
HEIGHT 1
VIEWPOINT 0 0 0 1 0 0 0
POINTS 60
DATA ascii
-0.91459966 -0.68089032 1.4539137
-0.25868174 -0.38994065 0.89322263
0.56294668 -1.7957021 3.2381608
-0.48807555 -0.4527466 0.84288985
-0.25365603 -0.65153927 0.99217123
-0.67974055 -0.58134502 0.44850487
-0.37284493 -0.33017772 0.88531095
-0.42794713 -0.39496529 0.58924007
-0.79570109 -0.85657388 0.69149745
-0.42694959 -0.30442363 0.79202735
0.051249325 -0.96708536 1.0874851
-0.4153038 -0.41068441 0.94734383
-0.65098333 -0.83116305 0.67725718
-0.3234646 -0.30435997 0.88753951
-0.6897645 -0.58776551 0.54018295
-0.51871151 -0.85811061 0.72907525
-0.99457639 -0.80516225 1.5338815
-0.63733238 -0.40873876 0.71020657
-0.60808229 -0.43146589 0.33849478
-0.15816638 -0.35928771 1.0815103
0.16710401 -0.8952983 1.1339597
0.087832935 -1.5212622 1.971169
-0.6897645 -0.58776551 0.54018295
-0.6398384 -0.5622654 0.81026769
-0.71391249 -1.0472791 0.70660073
-0.12819032 -0.42627561 1.0213244
0.25630185 -1.8871677 2.5185056
-0.36625081 -0.24752396 0.94036257
-0.86446792 -1.1008903 0.68195915
0.31166247 -1.1866304 1.8374748
-0.61750364 -0.85780966 0.73616284
-0.1577704 -0.46167645 0.91738069
-0.39612424 -0.30751503 0.82567954
-0.51469296 -0.8489098 0.71348715
-0.60366845 -0.45371184 0.64072043
-0.26647937 -0.68499339 1.0224828
-0.29103708 -0.40231523 0.67304534
-0.3305777 -0.31503624 0.77369171
-0.20969674 -0.26469243 0.89776415
-0.53120905 -0.4158006 0.77009183
-0.61622757 -0.4354738 0.34799713
-0.23101228 -0.64208448 1.059291
-0.46542603 -0.42482176 0.75688404
-0.68869597 -0.59266502 0.58178669
-0.49158686 -0.64378905 0.45441452
0.045635846 -0.95848966 1.0796645
0.11892319 -0.87495387 1.1079295
-0.50605589 -0.35581145 0.77091038
-0.79570109 -0.85657388 0.69149745
-0.25365603 -0.65153927 0.99217123
-0.54216927 -0.49901414 0.89578325
0.029043647 -1.2393527 1.2850361
-0.24958646 -0.59850669 0.84197026
-0.63733238 -0.40873876 0.71020657
-0.22698759 -0.54417479 0.66941375
0.27439973 -0.97801059 1.2869924
-0.6133579 -0.47351497 0.61552131
-0.48811045 -0.3326326 0.69552904
-0.35199857 -0.33148414 0.8125723
-0.49378935 -1.0918583 0.80737263
