# .PCD v0.7 - Point Cloud Data file format
VERSION 0.7
FIELDS x y z normal_x normal_y normal_z curvature
SIZE 4 4 4 4 4 4 4
TYPE F F F F F F F
COUNT 1 1 1 1 1 1 1
WIDTH 896
HEIGHT 1
VIEWPOINT 0 0 0 1 0 0 0
POINTS 896
DATA ascii
-0.56355739 -0.16712941 0.70837778 0 0 0 -1.8473692e-37
0.4782328 -0.10771761 1.190854 0 0 0 1.6240936e+19
0.18733251 0.026247606 1.1751579 0 0 0 -3.2382996e-33
-0.015219278 0.015677486 1.13486 0 0 0 8.2266097e+34
-0.17808685 -0.19295372 0.90895981 0 0 0 4.3682023e-05
0.6218313 -0.57975751 1.6304988 0 0 0 2.6778734e-32
0.073077016 -0.77957833 1.0973104 0 0 0 2.6585386e-32
-0.3633692 0.026329286 0.75753933 0 0 0 6.6463464e-33
-0.53259826 -0.50021863 0.73443472 0 0 0 6.6463464e-33
-0.23523004 -0.47327855 0.83565032 0 0 0 12.015439
-0.044532362 -0.85787344 1.0344611 0 0 0 201997.02
-0.50106359 -0.48595977 0.56247842 0 0 0 4.4755464e+27
-0.49886206 -0.57466501 0.61558068 0 0 0 2.3788259e+14
-0.33357826 -0.11760906 0.90823811 0 0 0 -4.6741745e-38
-0.71855283 -0.33382148 0.099720255 0 0 0 nan
-0.64464754 -0.33034834 0.2595349 0 0 0 4.3682961e-05
0.14579926 -0.066137463 1.1500061 0 0 0 2.6778734e-32
-0.24397744 -0.513183 0.94069529 0 0 0 6.6463464e-33
-0.087038219 0.20680179 1.0092276 0 0 0 6.6463464e-33
0.10039696 0.23089044 1.1155789 0 0 0 6.6463464e-33
0.14847943 0.18696582 1.109381 0 0 0 0.74310648
0.27266631 0.096109368 1.1941091 0 0 0 777.01959
-0.56951439 -0.28371671 0.35368776 0 0 0 6.0608727e+16
-0.5566051 -0.24574937 0.49978369 0 0 0 5.6727257e+10
-0.24887346 0.14586918 0.97342736 0 0 0 7.6516392e+31
-0.45490947 -0.25188303 0.16984867 0 0 0 -3.1392616e-36
-0.90176296 -0.56520176 0.46749786 0 0 0 4.3922315e-05
-0.71974313 -0.47141197 0.47496614 0 0 0 2.6778734e-32
-0.28602505 -1.695598 1.5000982 0 0 0 6.6463464e-33
-0.52482337 -0.49054825 0.71675676 0 0 0 6.6463464e-33
-0.24608046 -0.4744693 0.87588847 0 0 0 6.6463464e-33
-0.69660109 -0.59842706 0.56479722 0 0 0 0.0028261666
-0.066146605 -0.11406229 1.0684016 0 0 0 48.564705
0.096565731 -0.86080325 1.1489052 0 0 0 8.5264435e+08
-0.53829283 -0.26071975 0.664478 0 0 0 8.6953677e+08
-0.49066851 -0.45216638 0.74395663 0 0 0 1.0880519e+24
-0.13535152 -0.10195367 1.0319569 0 0 0 -2.0694897e-34
-0.065555125 -0.11336178 1.1193111 0 0 0 4.4161672e-05
-0.072201662 -0.21419245 1.0350952 0 0 0 2.6585386e-32
-0.51216149 -0.16137372 0.38041273 0 0 0 6.6465353e-33
-0.54340166 -0.2466727 0.38504946 0 0 0 6.6463464e-33
-0.0080334935 0.30506316 0.93608826 0 0 0 6.6463464e-33
-0.69892967 -0.63160956 0.63120222 0 0 0 2.7001483e-06
0.23978885 0.16182345 1.1260548 0 0 0 48.816669
0.36773318 -0.60300183 1.3531828 0 0 0 3140.2036
0.074786611 -0.12430857 0.9466812 0 0 0 2.1527882e+08
-0.12514159 -0.27243051 0.87290019 0 0 0 9.9697337e+17
-0.12069783 -0.28136885 0.92080343 0 0 0 -5.413751e-32
-0.10975504 -0.25174975 0.89976174 0 0 0 0.00017760784
-0.51115662 -0.14816165 0.80310357 0 0 0 6.6463464e-33
-0.039356351 -1.4525329 1.4156306 0 0 0 2.6778734e-32
0.020750519 -0.9701764 1.3226056 0 0 0 6.6463464e-33
0.091229618 -1.1829782 1.7696258 0 0 0 6.6463464e-33
-0.6927036 -0.36866364 0.30295512 0 0 0 4.1488594e-08
-0.41583657 -0.75036991 0.59777516 0 0 0 793.09808
-0.14215174 -0.24415697 0.98622888 0 0 0 2.9882348
0.12799062 -0.62623644 1.1319734 0 0 0 3314322.5
-0.36204895 -0.0081975674 0.74513447 0 0 0 2.3787826e+14
0.061843071 -0.21175344 1.0689793 0 0 0 -3.5142007e-30
-0.66082007 -0.44588128 0.7626729 0 0 0 0.00071807572
-0.31968233 -0.19237557 0.79306853 0 0 0 6.6463464e-33
-0.30935812 0.058859158 0.80679864 0 0 0 2.6778734e-32
-0.55937213 -0.28026402 0.67706668 0 0 0 6.6463464e-33
-0.29052496 -0.16185312 0.84218305 0 0 0 6.6463464e-33
-0.18753131 -0.037551817 1.0393839 0 0 0 2.5784852e-09
-0.5276078 -0.49334252 0.72436219 0 0 0 51272.285
0.033457827 -0.78248668 1.0372944 0 0 0 0.011488728
0.048840981 -0.11887933 0.97398275 0 0 0 195.26274
-0.17185643 0.24502049 0.91416818 0 0 0 1.4660423e+13
-0.29720429 0.15986814 0.84537828 0 0 0 -1.4056418e-29
-0.63807833 -0.42530689 0.56599581 0 0 0 0.0028876811
-0.3883124 -0.16732116 0.76841176 0 0 0 6.6463464e-33
-0.37820652 -0.07275828 0.73501951 0 0 0 2.6778734e-32
-0.5389877 -0.25815469 0.46209103 0 0 0 6.6463464e-33
-0.54756951 -0.22543131 0.31565839 0 0 0 6.6463464e-33
-0.54083681 -0.52137011 0.71238238 0 0 0 2.5639333e-09
-0.66318071 -0.37137648 0.71273965 0 0 0 824468.56
-0.19512829 -0.41417542 0.86207557 0 0 0 0.00017567797
-0.83666384 -0.49800462 0.60123581 0 0 0 0.01148897
-0.35008335 -0.023141243 0.79655403 0 0 0 3.6477914e+12
-0.22557467 -0.12172383 0.93183118 0 0 0 -1.395781e-29
-0.35959661 -0.22372214 0.65298665 0 0 0 0.046447996
-0.66650325 -0.4430407 0.50930744 0 0 0 6.6463464e-33
-0.18684819 0.22695142 0.90886307 0 0 0 2.6777979e-32
-0.64337271 -0.93120062 0.48857027 0 0 0 6.6463464e-33
-0.54693943 -0.21113741 0.78489161 0 0 0 6.6463464e-33
-0.9611488 -1.6637796 0.62408632 0 0 0 6.4098332e-10
-0.33088836 -0.53859842 0.75845623 0 0 0 3314322.5
-0.58384222 -0.90652847 0.5057295 0 0 0 1.0313254e-08
-0.37756869 -0.24520175 0.60119289 0 0 0 1.0920507e-05
-0.0086940592 -1.4960291 1.2719765 0 0 0 2.2474888e+11
0.18022493 -1.2225533 1.8638741 0 0 0 -3.4895492e-30
-0.18558824 -0.13934094 0.9819262 0 0 0 0.18676855
0.24636103 -0.60311437 1.3769186 0 0 0 6.6463464e-33
-0.69829148 -0.36955073 0.308011 0 0 0 6.6463464e-33
-0.34871215 -0.35372066 0.61234891 0 0 0 6.6463464e-33
-0.11066762 -1.0966806 1.1042622 0 0 0 6.6463464e-33
-0.11512575 -1.1993443 1.1955086 0 0 0 6.4098332e-10
-0.37547398 -1.306178 1.0216229 0 0 0 13323082
-0.84526306 -1.8072286 0.99098021 0 0 0 1.5023796e-13
0.1992335 -0.98271006 1.3745742 0 0 0 4.1956994e-08
-0.48084608 -0.21831688 0.59794319 0 0 0 3297745.2
-0.64754307 -0.32979783 0.26173192 0 0 0 -8.5996449e-31
-0.73120809 -1.5340217 0.78039467 0 0 0 0.18676855
-0.39903051 -0.17118882 0.80567062 0 0 0 6.6463464e-33
-0.64589578 -0.42720166 0.70459765 0 0 0 6.6463464e-33
-0.34186172 -0.098061815 0.78102732 0 0 0 6.6463464e-33
-0.077640742 0.21960874 0.96447724 0 0 0 6.6463464e-33
-0.088075608 -0.20794877 0.98902982 0 0 0 6.4098338e-10
-0.56980634 -0.309973 0.6506983 0 0 0 13323083
-0.2456581 -0.52125669 0.99003065 0 0 0 1.4149558e-16
-0.19514236 -0.11187939 0.99184167 0 0 0 6.40969e-10
-0.30907321 -0.11162123 0.78900647 0 0 0 12.015194
-0.30518547 -0.17590484 0.80439132 0 0 0 -1.2271973e-35
-0.32974285 -0.026037814 0.84993166 0 0 0 0.75099581
-0.12320676 -0.13105179 1.0336052 0 0 0 6.6463464e-33
-0.23273431 0.0067640161 0.97693628 0 0 0 6.6463464e-33
-0.7295481 -0.50435334 1.0631917 0 0 0 6.6463464e-33
-0.57798892 -0.39259639 1.0830886 0 0 0 6.6463464e-33
-0.030347794 -0.1194325 1.1174083 0 0 0 6.4464989e-10
-0.086968519 -0.013532196 1.1277696 0 0 0 13323082
-0.21843457 0.15527868 0.91743976 0 0 0 5.4249958e-19
-0.39565381 0.046270218 0.75741202 0 0 0 9.7866524e-12
-0.78291589 -0.4782697 0.73343211 0 0 0 0.00017472432
-0.43689877 -0.28462404 0.6201449 0 0 0 1.983158e+34
-0.69073254 -0.42459226 0.52451026 0 0 0 12.141423
-0.26936814 -0.26516682 0.77552998 0 0 0 6.6463464e-33
-0.35483536 -0.64310044 0.68778139 0 0 0 6.6463464e-33
-0.075102754 -0.96512258 1.0861819 0 0 0 6.6463464e-33
0.082433462 -1.1036172 1.3852937 0 0 0 6.6463464e-33
-0.50954288 -0.13012446 0.80297166 0 0 0 2.6077605e-09
-0.63748902 -0.4246926 0.56633776 0 0 0 13257290
-0.50931716 -0.25825387 0.680861 0 0 0 8.3171153e-21
-0.5719499 -0.31413713 0.64896876 0 0 0 3.7114534e-14
-0.35993421 -0.096259139 0.79263049 0 0 0 1.0313712e-08
-0.020712415 -0.32422855 1.0379575 0 0 0 4.3330206e+24
-0.5962975 -0.69498497 0.75070345 0 0 0 197.27844
-0.5632357 -0.36474362 0.64725947 0 0 0 6.6463464e-33
-0.41965953 -0.61983323 1.0990719 0 0 0 6.6463464e-33
-0.36704504 -0.037869394 0.74964565 0 0 0 6.6463464e-33
-0.77856523 -0.61314124 0.53734362 0 0 0 6.6463464e-33
0.074175969 -0.22101285 1.121158 0 0 0 1.0489477e-08
-0.5081799 -0.79522794 0.9580605 0 0 0 3297874
-0.33642003 -0.1810661 0.92780024 0 0 0 1.274669e-22
-0.57020557 -0.23462012 0.7160151 0 0 0 1.414956e-16
-0.48739326 -0.26831651 0.74186021 0 0 0 3.9374875e-11
-1.1140883 -0.73941249 0.33317295 0 0 0 1.5223378e+16
-0.038966376 -0.22744186 1.3857572 0 0 0 51274.293
-0.19017322 -0.062485442 1.0331557 0 0 0 6.6463464e-33
-0.239737 -0.12927207 0.9995259 0 0 0 6.6463464e-33
-0.33410457 -0.11554395 0.92865658 0 0 0 6.6463464e-33
-0.16394255 -0.3355647 0.75049204 0 0 0 6.6463464e-33
-0.29468915 -0.81296742 0.87121117 0 0 0 4.1957907e-08
-0.52304876 -0.5101456 0.68387395 0 0 0 205085.11
-0.25138307 -0.76949733 0.93950367 0 0 0 7.8628788e-24
0.18792731 -0.68907708 1.3524164 0 0 0 5.4251292e-19
-0.67088479 -0.40175915 0.59790689 0 0 0 6.0809918e-13
0.17778467 -1.0913136 1.6516551 0 0 0 2.131652e+08
-0.48991662 -0.4668225 0.61026806 0 0 0 3330835.2
-0.79379797 -0.73194426 0.53918713 0 0 0 6.6463464e-33
0.071661755 -1.0796394 1.3411853 0 0 0 6.6463464e-33
-0.83967644 -0.49996454 0.603643 0 0 0 6.6463464e-33
-0.54723829 -0.36031511 0.61452556 0 0 0 6.6463464e-33
-0.99205643 -0.5241757 0.61691499 0 0 0 1.0431042e-08
-0.44577098 -0.61659396 0.6110974 0 0 0 51014.27
-0.60008091 -0.82332826 0.49012548 0 0 0 4.8819875e-25
-0.78014952 -0.40903303 0.17334078 0 0 0 3.3481883e-20
-0.53315258 -0.2840687 0.60423976 0 0 0 1.5113313e-13
-0.70501286 -0.63216305 0.63009274 0 0 0 48.312748
-0.37124643 -0.17271322 0.85663164 0 0 0 53818676
-0.14381135 -0.21029823 0.89214438 0 0 0 6.6463464e-33
-0.61643678 -0.34431693 0.69718951 0 0 0 6.6463464e-33
-0.72015858 -0.34443566 0.17677511 0 0 0 6.6463464e-33
-0.2238349 -1.4696975 1.2435235 0 0 0 6.6463464e-33
-0.15024704 -1.1069555 1.0846531 0 0 0 2.6077602e-09
-0.11033248 -0.25328419 0.89780277 0 0 0 3156.3291
-0.12334283 -0.27308354 0.86507726 0 0 0 4.8819875e-25
-0.16495468 -0.33920828 0.76243496 0 0 0 8.3175313e-21
-0.44272676 -1.1381664 0.63146698 0 0 0 3.733832e-14
-0.70244372 -0.4266912 0.58229369 0 0 0 4.3922315e-05
0.17176268 -1.0932488 1.6712415 0 0 0 53818676
-0.52135527 -0.28079137 0.56642467 0 0 0 6.6463464e-33
-0.60220128 -0.31458455 0.72992295 0 0 0 6.6465353e-33
-0.29812461 -0.77782202 0.76470864 0 0 0 6.6463464e-33
-0.61419731 -0.34525111 0.67854732 0 0 0 6.6463464e-33
-0.59872127 -0.38768676 0.77861881 0 0 0 6.4828787e-10
-0.50939155 -0.23120113 0.62339026 0 0 0 48.565685
-0.62945777 -0.61177808 0.59816831 0 0 0 4.8819875e-25
-0.47961807 -0.21769173 0.58393615 0 0 0 2.0793828e-21
-1.035284 -0.60957259 0.66882163 0 0 0 2.3196586e-15
-0.78775954 -0.61124986 0.52207303 0 0 0 6.4464994e-10
-0.63294101 -0.61340994 0.60335666 0 0 0 53818676
-0.55260378 -0.30141488 0.61541605 0 0 0 6.6463464e-33
-0.74616235 -0.48705694 0.56643653 0 0 0 2.6778734e-32
-0.45758793 -0.30923268 0.64054763 0 0 0 6.6463464e-33
-0.43322542 -0.1789721 0.51882786 0 0 0 6.6463464e-33
-0.47271937 -0.23967348 0.88471973 0 0 0 6.4464994e-10
-0.33048052 -1.6463938 1.3415402 0 0 0 0.18775278
-0.54980105 -0.20896077 0.8111586 0 0 0 4.8819875e-25
-0.31480962 -1.4167962 1.0813953 0 0 0 2.079383e-21
-0.72803766 -0.47357136 0.53586125 0 0 0 2.3196586e-15
-0.10304914 -0.10883385 1.068792 0 0 0 2.4610971e-12
0.036765452 -0.86158574 1.0997403 0 0 0 53556536
-0.19152695 -0.062652394 1.0675547 0 0 0 6.6463464e-33
-0.48149705 -0.31161845 0.73253381 0 0 0 2.6778734e-32
-0.43815058 -0.28916851 0.65666443 0 0 0 6.6463464e-33
-0.10972213 -1.0720854 1.067898 0 0 0 6.6463464e-33
-0.41521522 -0.26618347 0.66919124 0 0 0 1.6116249e-10
-0.47942904 -0.31045669 0.89073372 0 0 0 0.0029030596
-0.10277351 -0.075487964 1.3384126 0 0 0 4.8819875e-25
-0.65935123 -0.30590653 0.68837845 0 0 0 8.370886e-21
-0.42120278 -1.0542592 0.54936028 0 0 0 9.2788512e-15
-0.73525488 -0.34718645 0.19036515 0 0 0 3.7784154e-14
-0.65289724 -0.33034289 0.26760685 0 0 0 53557564
-0.55291158 -0.31150061 0.57296973 0 0 0 6.6463464e-33
-0.77827263 -0.61333835 0.53357059 0 0 0 2.6778734e-32
-0.84975851 -0.50522023 0.62030071 0 0 0 6.6463464e-33
-0.55310112 -0.66815948 0.72401947 0 0 0 6.6463464e-33
-0.65858042 -0.43675584 0.56031144 0 0 0 4.0062356e-11
-0.75125295 -0.79899484 0.43120816 0 0 0 0.00017856147
-0.43775699 -0.65709323 0.59730726 0 0 0 1.952795e-24
-0.56089646 -0.2653777 0.61475921 0 0 0 3.3696133e-20
-1.0920112 -0.57169515 0.51595777 0 0 0 3.7337453e-14
-0.34842899 -0.5397324 0.89826632 0 0 0 2.3196586e-15
-0.45256984 -0.30878451 0.61295801 0 0 0 53819712
-0.44202074 -0.50584245 0.6925208 0 0 0 6.6463464e-33
-0.3265036 -0.43621293 0.67340714 0 0 0 6.6463472e-33
-0.49618781 -0.73911065 0.57063574 0 0 0 6.6463464e-33
-0.3006621 -0.47027463 0.69040239 0 0 0 6.6463464e-33
-0.2734907 -0.53384674 0.75326198 0 0 0 2.4753084e-12
-0.26043412 -1.3295362 1.0703726 0 0 0 1.6782795e-07
-0.97002298 -0.56950492 0.59521312 0 0 0 1.9657704e-24
-0.30936927 -0.23151693 0.66305119 0 0 0 1.3563156e-19
-0.7649827 -0.71416503 0.50613505 0 0 0 3.7115405e-14
-1.0028578 -1.5661013 0.64829594 0 0 0 3.5591593e-17
-0.83269525 -0.48170304 0.67001259 0 0 0 54082876
-0.036270522 -0.4804728 1.0129529 0 0 0 6.6463464e-33
-0.67851853 -0.31421584 0.73612028 0 0 0 6.6463464e-33
-0.10406929 -1.1159334 1.1373971 0 0 0 6.6463464e-33
-0.62871587 -0.41461268 0.58759433 0 0 0 6.6463464e-33
-0.77319139 -0.44732904 0.78006619 0 0 0 1.5203179e-13
-0.45059615 -0.53688449 0.66510528 0 0 0 9.7866533e-12
-0.064094119 -0.89689499 1.0249983 0 0 0 7.914983e-24
-0.78631467 -0.71928841 0.48985067 0 0 0 1.3563156e-19
-0.73331189 -0.31463444 0.12236723 0 0 0 9.2786344e-15
-0.48714918 -1.2143537 0.73670393 0 0 0 8.7892647e-18
-1.004436 -0.52807355 0.6289497 0 0 0 2.1527883e+08
-0.47035277 -0.32750157 0.5921796 0 0 0 6.6463472e-33
-0.39216539 -0.84500891 0.77912003 0 0 0 6.6463464e-33
-0.7692306 -0.7926532 0.41954523 0 0 0 6.6463464e-33
-0.15202895 -0.49110657 0.71680772 0 0 0 6.6463464e-33
-0.44319609 -0.70359689 0.5894469 0 0 0 9.3905283e-15
-0.53383291 -0.51636165 0.57034415 0 0 0 5.764452e-16
-0.62971014 -1.2645171 0.57336509 0 0 0 3.1867538e-23
-0.41004321 -0.72902167 0.64605331 0 0 0 5.4592768e-19
-0.81424278 -0.73486584 0.51081783 0 0 0 9.2786335e-15
-0.21056844 -0.43578368 0.85652238 0 0 0 5.4591439e-19
-0.48233047 -0.80091256 0.57642621 0 0 0 2.1527883e+08
-0.55500579 -0.36891186 0.49201614 0 0 0 6.6465353e-33
-0.12270034 -0.51214439 0.77178454 0 0 0 6.6463464e-33
-0.084509775 -1.0458943 1.1508731 0 0 0 6.6463464e-33
-0.13435739 -0.40633035 1.2349945 0 0 0 6.6463464e-33
-0.19614431 -0.3996892 0.78917938 0 0 0 5.7994191e-16
-0.30477965 -0.4252786 0.69750267 0 0 0 2.1973697e-18
-0.63743794 -0.58916098 0.56568813 0 0 0 1.2830056e-22
-0.4408094 -0.698313 0.62392324 0 0 0 5.4592773e-19
0.13845637 -1.0780365 1.5321608 0 0 0 9.2229055e-15
-0.42003092 -0.67102247 0.65379441 0 0 0 1.3563155e-19
-0.99699157 -0.5217694 0.57155895 0 0 0 2.152747e+08
-0.45363301 -0.54408109 0.6855402 0 0 0 6.6948745e-33
-0.2471205 -0.4678677 0.72006822 0 0 0 6.6463464e-33
-0.24155034 -1.6198822 1.2546457 0 0 0 6.6463464e-33
-1.0404295 -0.53822726 0.61361736 0 0 0 6.6463464e-33
-0.50309247 -0.48804373 0.65935111 0 0 0 1.4411473e-16
-0.72883314 -0.63745892 0.54491037 0 0 0 1.3648193e-19
-0.02281869 -1.4766222 1.4526249 0 0 0 1.2830056e-22
-0.87362075 -0.73144597 0.47050822 0 0 0 2.1973164e-18
-0.88243765 -0.49126467 0.5021109 0 0 0 2.3057264e-15
-0.40583286 -0.65826482 0.44199255 0 0 0 1.3562824e-19
-0.34599727 -0.35185158 0.89748591 0 0 0 13322826
-0.66793472 -0.44172648 0.53586709 0 0 0 2.6975124e-32
-0.12939741 -0.30854931 0.908867 0 0 0 6.6463464e-33
-0.18229321 -0.37748817 0.79007661 0 0 0 6.6463464e-33
-0.13525243 -0.30669796 0.85577691 0 0 0 6.6463464e-33
-0.48936522 -0.4631893 0.68502939 0 0 0 1.4411472e-16
-0.56225491 -0.60075104 0.59127802 0 0 0 3.3907891e-20
-0.024553012 -1.2397159 1.5648564 0 0 0 1.2830058e-22
-0.24797012 -0.63926202 1.2558244 0 0 0 2.210922e-18
-0.50895125 -0.47748631 0.74556947 0 0 0 5.764316e-16
-0.2882916 -0.18738097 0.6416927 0 0 0 1.3562824e-19
-0.44306123 -0.69848043 0.62794572 0 0 0 50759.281
-0.30410895 -0.17573683 0.77567184 0 0 0 4.5019971e-31
-0.19576116 -0.4023107 0.80012733 0 0 0 6.6463464e-33
-0.13409178 -1.1592375 1.1779263 0 0 0 6.6463464e-33
-0.59534651 -0.35287026 0.50617927 0 0 0 6.6463464e-33
-0.032020845 -1.1136124 1.0978739 0 0 0 1.4411472e-16
-0.40717104 -0.57813203 0.74537462 0 0 0 3.3482717e-20
-0.36397347 -0.20733497 0.91943902 0 0 0 1.2830058e-22
-0.49788246 -0.72077757 0.57544309 0 0 0 8.8436882e-18
-0.2898432 -0.75247568 0.75532043 0 0 0 5.7643165e-16
-0.35022771 -0.65562731 0.61738747 0 0 0 1.3563156e-19
-0.66590095 -0.57218015 0.52045608 0 0 0 48.816673
-0.67958778 -0.39219272 0.32386994 0 0 0 1.9581583e-27
-0.27657646 -0.23670603 0.77058834 0 0 0 6.6463464e-33
-0.89625448 -0.71526355 0.53487545 0 0 0 6.6463464e-33
-0.46486652 -0.42746636 0.74352366 0 0 0 6.6463464e-33
-0.31037942 -0.53204095 0.77208871 0 0 0 5.7645886e-16
-0.98896629 -0.57685661 0.53359365 0 0 0 8.3175313e-21
-0.56747943 -0.54405439 0.66924036 0 0 0 5.1652396e-22
-0.13279444 -0.30698201 0.87571949 0 0 0 8.8436882e-18
-0.62463152 -0.74409175 0.5603689 0 0 0 5.764452e-16
-0.43308523 -0.61628896 0.76379657 0 0 0 1.3563156e-19
-0.4834753 -0.7023052 0.51690012 0 0 0 0.18775278
-0.1039629 -0.48242623 0.89646411 0 0 0 2.1993282e-21
-0.32928586 -0.56403989 0.71915966 0 0 0 6.6463464e-33
-0.4613553 -0.42397225 0.73133844 0 0 0 6.6463464e-33
-0.98449141 -0.76884371 0.3836399 0 0 0 6.6463464e-33
-0.35624409 -0.56603259 0.70775163 0 0 0 5.7994186e-16
-0.043408643 -0.92215812 1.0892365 0 0 0 2.066096e-21
-0.98558533 -0.80051589 0.36931434 0 0 0 5.1652401e-22
-0.42487076 -0.1790165 0.48908892 0 0 0 8.8436882e-18
-0.44999158 -0.41245887 0.69051421 0 0 0 5.7992831e-16
-0.44359437 -0.87566912 0.71514744 0 0 0 1.3563489e-19
-0.63768256 -0.57255656 0.51991487 0 0 0 0.01161176
0.033414438 -0.79765731 1.054741 0 0 0 9.7255552e-15
-0.51798558 -0.45712832 0.76897734 0 0 0 6.6463464e-33
-0.31071559 -0.73328912 0.63474166 0 0 0 6.6463464e-33
-0.6439209 -0.85687149 0.4807052 0 0 0 6.6463464e-33
-0.61976504 -0.67850232 0.55235291 0 0 0 2.3336996e-15
-0.6659286 -0.80330354 0.69859481 0 0 0 1.2830056e-22
-0.62551129 -0.82038683 0.54092938 0 0 0 5.1652401e-22
-0.098655142 -0.49848619 0.96314794 0 0 0 8.843689e-18
-0.52864242 -0.83819222 0.61662257 0 0 0 9.3347986e-15
-0.62127316 -0.59240592 0.74218768 0 0 0 1.3648192e-19
-0.58486581 -0.38947162 0.45210958 0 0 0 0.00017760784
-0.36019805 -0.5420121 0.77554709 0 0 0 6.5559236e-10
-0.17821988 -0.38725886 0.88222241 0 0 0 6.6463472e-33
-0.5663048 -0.68462318 0.55768663 0 0 0 6.6463464e-33
-0.49407178 -0.32194978 0.53088784 0 0 0 6.6463464e-33
0.0063113873 -1.2617768 1.3083541 0 0 0 3.756211e-14
-0.81872237 -1.2194749 1.10488 0 0 0 3.1866727e-23
-0.40583688 -0.77911562 0.65260327 0 0 0 2.0793828e-21
-0.30681965 -0.51900059 0.73202956 0 0 0 3.5592444e-17
-0.3743206 -0.53851229 0.7254504 0 0 0 3.7784151e-14
-0.28606573 -0.31651446 0.66168487 0 0 0 5.4592773e-19
-0.0019177219 -0.99584454 1.1851394 0 0 0 1.1100724e-05
-0.42258582 -0.17832768 0.4751496 0 0 0 1.687666e-07
-0.42720056 -0.49557793 0.6902594 0 0 0 6.6463472e-33
-0.55203384 -0.3666541 0.6853267 0 0 0 6.6463464e-33
-0.46336386 -0.31066471 0.45951709 0 0 0 6.6463464e-33
-0.59889597 -0.77965981 0.4179599 0 0 0 1.511401e-13
-0.52144188 -0.57864648 0.5320667 0 0 0 7.9147803e-24
-0.35223377 -0.46624202 0.69922441 0 0 0 2.0793828e-21
-0.40303749 -0.28915057 0.68999773 0 0 0 1.4324054e-16
-0.32781741 -0.57186484 0.74259812 0 0 0 6.0809918e-13
-0.17074776 -0.37606925 0.8820312 0 0 0 5.4594096e-19
-0.39865702 -0.63895613 0.69785327 0 0 0 0.00017951889
-0.57994878 -0.37616122 0.62419188 0 0 0 6.7505187e-07
-0.58236367 -0.3748318 0.62283874 0 0 0 6.6463464e-33
-0.002398914 -1.0038006 1.1970936 0 0 0 6.6463464e-33
-0.85923284 -0.88394815 0.35527077 0 0 0 6.6463464e-33
-0.96471554 -0.7298274 0.46864206 0 0 0 6.1167976e-13
-0.79368198 -0.4984954 0.49871179 0 0 0 1.952795e-24
-0.55468005 -0.75796682 0.47153923 0 0 0 8.3175313e-21
-0.40630183 -0.42477238 0.75336176 0 0 0 5.764452e-16
-0.34418842 -0.30883357 0.57762885 0 0 0 6.0809918e-13
-0.26405999 -0.27361086 0.67543823 0 0 0 5.4934238e-19
-0.75407225 -0.93894422 0.33539838 0 0 0 0.00071037113
-0.86750299 -0.53656423 0.59979868 0 0 0 1.6876297e-07
-0.3228797 -0.33530083 0.66765505 0 0 0 6.6463464e-33
-0.33925834 -0.21613201 0.56547004 0 0 0 6.6463464e-33
-0.84911954 -0.68109351 0.47922409 0 0 0 6.6463464e-33
-0.8316415 -0.66554534 0.45841721 0 0 0 9.8439434e-12
-0.39002854 -0.74632156 0.63880569 0 0 0 4.849549e-25
-0.35316393 -0.26030993 0.59638172 0 0 0 8.3175313e-21
-0.22763902 -0.74273193 0.79242754 0 0 0 2.3196586e-15
-0.42109239 -0.62955302 0.6920011 0 0 0 6.0809918e-13
-0.35979739 -0.46427897 0.67253244 0 0 0 2.2109223e-18
-0.97673863 -0.88007998 0.36601478 0 0 0 1.6500837e-07
-0.51452392 -0.32104075 0.55338043 0 0 0 4.1956998e-08
-0.67279595 -0.84057057 0.45574659 0 0 0 6.6463464e-33
-0.63026851 -1.852772 1.3192953 0 0 0 6.6463464e-33
-0.55535281 -0.74828291 0.46532777 0 0 0 6.6463464e-33
-0.48145702 -0.51944113 0.66300279 0 0 0 3.9604927e-11
-0.11036688 -0.47013342 0.85217625 0 0 0 1.2042776e-25
-0.63023347 -0.76989746 0.40126884 0 0 0 2.0793826e-21
-0.86611217 -0.59651685 0.47094345 0 0 0 9.2790698e-15
-0.1730421 -1.348438 0.93107557 0 0 0 6.0811306e-13
-0.48055312 -0.69982356 0.59999949 0 0 0 8.8981109e-18
-0.46019006 -0.74403632 0.65870214 0 0 0 5.9380457e-13
-0.73679185 -0.43334615 0.51240969 0 0 0 1.0431041e-08
-0.56412554 -0.37130851 0.50767201 0 0 0 6.6465353e-33
-0.95209152 -0.59390795 0.6112799 0 0 0 6.6463464e-33
-0.40435523 -0.26433036 0.60599887 0 0 0 6.6463464e-33
-0.71123767 -0.39708191 0.35504076 0 0 0 1.593292e-10
-1.0293428 -0.59070021 0.45629233 0 0 0 3.0106149e-26
-0.37846914 -0.35982686 0.64022386 0 0 0 2.0793826e-21
-1.0284756 -0.59143329 0.45599771 0 0 0 3.7561242e-14
-0.51002216 -0.49036744 0.58734745 0 0 0 6.0811311e-13
-0.40754715 -0.47436967 0.7250523 0 0 0 3.5592444e-17
-0.33905506 -1.6069686 0.91648793 0 0 0 2.1700517e-18
-0.39071238 -0.85320646 0.75097799 0 0 0 1.0430814e-08
-0.5589875 -0.71939558 0.34176689 0 0 0 6.6946835e-33
-0.48671287 -0.31637362 0.85277307 0 0 0 6.6463464e-33
-0.58755738 -0.39543766 0.51401949 0 0 0 6.6463464e-33
-0.64530504 -0.59687626 0.5759002 0 0 0 1.593292e-10
-0.56701148 -0.57631564 0.52794588 0 0 0 7.4760494e-27
-0.44144121 -0.40315816 0.64969385 0 0 0 2.0793828e-21
-0.52730954 -0.2580443 0.52132845 0 0 0 6.1169386e-13
-0.37238336 -0.24532981 0.56434625 0 0 0 2.4466633e-12
-0.43938509 -0.40316325 0.64676023 0 0 0 3.5593294e-17
-1.1185627 -0.85322624 0.20774755 0 0 0 2.0793309e-21
-0.76762265 -0.48123673 0.95975572 0 0 0 1.0372378e-08
-0.72586298 -0.4804261 0.59992146 0 0 0 2.6778734e-32
-0.74431711 -0.83757031 0.41527987 0 0 0 6.6463464e-33
-0.55125129 -0.5354377 0.64914757 0 0 0 6.6463464e-33
-0.596008 -0.30670631 0.10974748 0 0 0 3.9604032e-11
-0.53657538 -0.36807021 0.38378164 0 0 0 7.4758522e-27
-0.95396018 -0.59250677 0.63743192 0 0 0 2.0793826e-21
-0.93643737 -0.7273559 0.47244981 0 0 0 2.6225417e-09
-0.53375161 -0.51395893 0.96270114 0 0 0 9.7868762e-12
-0.47232339 -0.56018806 0.54628527 0 0 0 1.4324055e-16
-1.1845187 -1.3776667 0.39219248 0 0 0 1.2829733e-22
-1.0443568 -1.6526307 0.6837762 0 0 0 2.5785423e-09
-1.1412852 -1.8215965 0.81479985 0 0 0 2.6778734e-32
-0.68152589 -0.94998878 1.3662927 0 0 0 6.6463464e-33
-0.59105718 -0.40153071 0.46922472 0 0 0 6.6463464e-33
-0.53775042 -0.28354436 -0.030710766 0 0 0 9.8437196e-12
-0.58543223 -0.70106828 0.54837328 0 0 0 7.4758522e-27
-0.63828301 -0.58702826 0.56664252 0 0 0 8.3175305e-21
-0.54353625 -0.7003637 0.50482589 0 0 0 0.047679257
-0.55768645 -0.30849233 -0.029946111 0 0 0 9.8439425e-12
-1.2769123 -0.78897363 0.32744092 0 0 0 1.4411131e-16
-0.57542092 -0.72415107 0.35721269 0 0 0 3.1866727e-23
-1.2686872 -0.78410649 0.32053614 0 0 0 2.5784854e-09
0.18242203 0.026844854 1.1501561 0 0 0 2.6778734e-32
0.050191019 0.42859429 1.0641789 0 0 0 6.6463464e-33
-0.0086632054 0.4476496 1.0533836 0 0 0 6.6463464e-33
-0.44785058 -0.61620599 0.61633688 0 0 0 2.4324525e-12
-1.2244512 -0.67311823 0.16218123 0 0 0 7.4758522e-27
-0.57272857 -0.53312165 0.61974025 0 0 0 2.0793826e-21
-0.69765627 -0.69429684 0.56384259 0 0 0 1.4588421e+10
-1.2638856 -0.84419376 0.27236575 0 0 0 9.8439425e-12
0.32713577 -0.058069091 1.1902826 0 0 0 2.319713e-15
0.35660532 0.17532392 1.0938057 0 0 0 7.914983e-24
0.94225937 0.087035984 1.365433 0 0 0 2.5785425e-09
-0.23721474 -0.14391135 1.0096841 0 0 0 2.6778734e-32
0.38358158 0.49161181 1.0234066 0 0 0 6.6463464e-33
-0.055488236 0.35077837 1.0441682 0 0 0 6.6463464e-33
0.014813354 0.11022638 1.1038998 0 0 0 6.0454642e-13
0.62194932 0.07157784 1.2267429 0 0 0 7.4253651e-27
0.33287171 0.39287281 1.071389 0 0 0 2.0793826e-21
0.44601786 0.67389989 1.0131257 0 0 0 7.3281056e+25
0.97117656 -0.029456325 1.275635 0 0 0 3.9604035e-11
0.27701175 0.23747307 1.0909739 0 0 0 9.3345809e-15
0.55141991 0.37767175 1.1164159 0 0 0 7.9151858e-24
0.49613094 0.097363889 1.1361628 0 0 0 1.0372606e-08
0.54892337 0.19765271 1.1285444 0 0 0 2.6778731e-32
0.44853666 0.00084976817 1.1581618 0 0 0 6.6463464e-33
0.47057307 0.3076475 1.1003649 0 0 0 6.6463464e-33
0.15351063 0.33231607 1.0546062 0 0 0 1.5113311e-13
0.43519118 -0.4396005 1.3855118 0 0 0 7.4253651e-27
0.012500917 -0.27835873 0.93695003 0 0 0 2.0793828e-21
0.056284666 0.41961908 1.0189486 0 0 0 nan
0.28484848 0.31526995 1.0729024 0 0 0 1.593292e-10
-0.0090195388 0.29940176 1.0248032 0 0 0 9.3903097e-15
0.32290861 0.3049663 1.0790188 0 0 0 7.9668846e-24
0.28398761 0.31426632 1.0701091 0 0 0 4.1723251e-08
0.23446609 0.10405144 1.1268629 0 0 0 2.6585386e-32
0.18461399 0.114161 1.105757 0 0 0 6.6463464e-33
0.17707604 0.28112414 1.055946 0 0 0 6.6463464e-33
-0.0012704401 0.38688347 0.98813176 0 0 0 1.511296e-13
-0.21347931 0.39858204 0.87008142 0 0 0 1.8563413e-27
0.63260382 -0.15764622 1.2514631 0 0 0 8.3175313e-21
0.30055323 0.38489345 1.0569961 0 0 0 -8.0336636e-34
0.18214516 0.026094589 1.1508907 0 0 0 6.4096906e-10
0.2193215 0.38082677 1.036348 0 0 0 3.756211e-14
0.0094224522 0.43609056 0.94997138 0 0 0 3.1867541e-23
-0.0095982514 0.16153008 1.081239 0 0 0 1.0371918e-08
0.14551517 0.18346095 1.094225 0 0 0 6.6463464e-33
0.27098051 0.34882846 1.0593956 0 0 0 6.6463464e-33
-0.31745255 0.22244705 0.79976809 0 0 0 6.6463464e-33
-0.00053705851 0.39462584 1.0221099 0 0 0 1.4933929e-13
0.43968794 0.0081759514 1.1239597 0 0 0 1.8563411e-27
0.36279503 0.17630577 1.1200012 0 0 0 8.3175313e-21
0.40178534 0.22809871 1.1047831 0 0 0 -1.1821866e-35
0.49982551 0.24621171 1.1073929 0 0 0 2.5784852e-09
0.24685627 0.26567143 1.0697241 0 0 0 1.511401e-13
-0.2669642 0.31213298 0.81344634 0 0 0 3.2075144e-23
-0.30800733 0.0069444217 0.85704994 0 0 0 3.9144816e-11
-0.26312554 0.08021266 0.92032427 0 0 0 6.6463464e-33
0.48464835 -0.14563406 1.2096411 0 0 0 6.6463464e-33
0.31015235 0.39906517 1.142114 0 0 0 6.6463464e-33
0.50973994 -0.057636905 1.209094 0 0 0 3.66652e-14
0.12920459 0.33890304 1.0258119 0 0 0 1.8562918e-27
0.070618488 0.10259416 1.1277747 0 0 0 8.3704708e-21
-0.30933684 0.28688654 0.86858588 0 0 0 1.9094721e+34
-0.26275271 0.30617881 0.80014712 0 0 0 1.0313941e-08
-0.16577677 0.092533372 1.0378875 0 0 0 6.0812705e-13
-0.29358527 0.046268638 0.89755791 0 0 0 1.2830058e-22
0.0061729038 0.46600369 1.0319206 0 0 0 5.6595507e-16
0.21580613 0.43480086 1.018579 0 0 0 6.6463464e-33
0.37924683 0.12015077 1.1124175 0 0 0 6.6463464e-33
-0.047628336 0.2136635 1.0496802 0 0 0 6.6463464e-33
-0.17100282 0.022300845 0.98969746 0 0 0 5.5546488e-16
0.32248142 0.30473486 1.0799285 0 0 0 1.84367e-27
0.066079825 0.43608689 1.0158769 0 0 0 8.3704708e-21
0.28074181 0.045324732 1.1453488 0 0 0 1.6799023e+25
0.3145476 0.12559636 1.1290994 0 0 0 1.0372377e-08
0.023078939 0.2764478 1.0454981 0 0 0 2.4609856e-12
0.019470906 0.14457761 1.0974314 0 0 0 1.2830382e-22
0.35183734 0.32489154 1.0763844 0 0 0 8.2108201e-21
0.05377702 0.41425532 0.99826252 0 0 0 6.6463464e-33
0.56435186 0.52502275 1.0977725 0 0 0 2.6777979e-32
0.614434 0.087288633 1.2516236 0 0 0 6.6463464e-33
0.071663901 -0.044276278 1.2018141 0 0 0 5.2203777e-19
0.2666012 -0.6461364 1.3232175 0 0 0 4.609175e-28
0.43595165 0.26188743 1.130987 0 0 0 8.3706776e-21
0.63598853 -0.2018535 1.2712538 0 0 0 6.264091e+19
-0.050362725 0.3698808 0.97098029 0 0 0 4.1722338e-08
0.096628219 0.45126185 1.0027133 0 0 0 3.9604039e-11
0.37575692 -1.0615175e-05 1.1576335 0 0 0 1.2913101e-22
0.28207743 0.49104452 1.0224949 0 0 0 4.8494218e-25
0.2351926 0.41523957 1.0339632 0 0 0 6.6463464e-33
-0.0013167519 0.44277012 1.0196468 0 0 0 2.6777979e-32
0.10008243 0.49766225 1.0044793 0 0 0 6.6463464e-33
0.2436047 0.47813514 1.0065637 0 0 0 1.2247135e-22
0.066261135 0.18427807 1.0896864 0 0 0 4.6091755e-28
-0.35117596 -0.04207211 0.7770561 0 0 0 8.3706784e-21
0.77279985 -0.09556789 1.3631082 0 0 0 2.4243044e+17
0.4249182 0.17505199 1.1110697 0 0 0 1.66893e-07
0.44348449 0.42028937 1.0708952 0 0 0 1.593292e-10
0.31252635 0.47846925 1.0262678 0 0 0 5.1653698e-22
1.0608034 0.26076066 1.6292523 0 0 0 1.8563413e-27
0.24231912 0.31217533 1.0580399 0 0 0 6.6463464e-33
0.48533997 0.15807194 1.2578175 0 0 0 2.6586141e-32
0.39861283 0.069805905 1.1392521 0 0 0 6.6463464e-33
0.55599761 0.30731967 1.1183687 0 0 0 2.9090066e-26
-0.20421983 0.066135339 0.99756014 0 0 0 4.6092988e-28
0.21822664 0.55054528 0.98892134 0 0 0 3.3694472e-20
0.4185749 -0.058167692 1.1670624 0 0 0 2.3122936e+14
0.45361668 0.19677083 1.1186303 0 0 0 1.6689302e-07
-0.062466774 0.256295 1.0223731 0 0 0 6.4095479e-10
0.13375263 0.47350991 0.98823601 0 0 0 2.079383e-21
-0.11173387 0.00045542434 1.1163864 0 0 0 4.6091755e-28
0.27281475 0.52777296 0.99546832 0 0 0 6.6463464e-33
-0.061269272 0.25769144 1.0143211 0 0 0 2.6778734e-32
0.057392869 0.036442883 1.1400727 0 0 0 6.6463464e-33
-0.28422153 0.092693098 0.87914431 0 0 0 2.7617865e-29
0.55186373 -0.08606717 1.1831628 0 0 0 1.8563413e-27
0.97203225 0.33536559 1.4784166 0 0 0 3.3695299e-20
0.44380018 0.35220394 1.0793681 0 0 0 3.4104453e+09
-0.20049348 -0.0054994007 1.0175858 0 0 0 1.6782799e-07
-0.006140817 0.39755625 1.0424112 0 0 0 6.3731681e-10
-0.21875992 0.57088089 1.0977212 0 0 0 2.0794347e-21
0.36205292 0.26739293 1.0867555 0 0 0 4.6408537e-28
-0.11897665 0.41787735 0.94637197 0 0 0 6.6463464e-33
-0.18165082 -0.031957924 1.0461705 0 0 0 2.6778734e-32
0.3730776 0.04428212 1.1422843 0 0 0 6.6463464e-33
0.48150593 0.53725028 1.0430347 0 0 0 4.2536617e-31
0.23955932 0.16537501 1.2023423 0 0 0 1.8562918e-27
-0.041485928 0.52276307 0.95443159 0 0 0 1.347812e-19
0.042288881 0.24881782 1.063815 0 0 0 12560.312
0.24466692 0.44964933 1.0088328 0 0 0 1.6876295e-07
-0.13439299 0.13738939 1.0477511 0 0 0 6.3731681e-10
-0.15219371 0.47643554 0.85243893 0 0 0 8.370886e-21
-0.27584425 0.04739473 0.85896522 0 0 0 7.476249e-27
0.25548786 0.090205774 1.1267205 0 0 0 6.6463464e-33
0.4584038 -0.11846796 1.2391611 0 0 0 2.6778734e-32
-0.27178803 0.13802706 0.89079344 0 0 0 6.6463464e-33
0.80873388 0.44614136 1.3018497 0 0 0 2.6585386e-32
0.54026556 0.27936429 1.1001345 0 0 0 1.8562918e-27
-0.30846637 0.061548457 0.83760744 0 0 0 1.3478121e-19
0.44547418 -0.16739897 1.2094767 0 0 0 0.74312192
-0.28582504 0.046515923 0.87834895 0 0 0 2.7002072e-06
0.81063008 0.45017317 1.3057171 0 0 0 6.4096906e-10
-0.18930678 0.16296299 0.99229223 0 0 0 3.3696133e-20
0.20059618 0.42425415 1.0187385 0 0 0 3.0310473e-26
0.21942489 0.54982346 0.99524075 0 0 0 6.6463464e-33
0.01444885 0.20758276 1.0786451 0 0 0 2.6778731e-32
0.25397378 0.50219047 1.0028323 0 0 0 6.6463464e-33
0.1389069 0.47624573 0.99275321 0 0 0 6.6463464e-33
-0.21207948 0.0031050877 0.98313737 0 0 0 1.8563411e-27
0.54651409 0.19629286 1.1194329 0 0 0 1.3562824e-19
0.4251745 0.38563123 1.0720383 0 0 0 0.011427935
0.28193864 0.48684141 1.0156376 0 0 0 2.7002072e-06
-0.082049116 0.23542468 1.0307184 0 0 0 2.5784852e-09
0.41510496 0.51973814 1.0076889 0 0 0 1.3563158e-19
0.20157403 -0.00093998364 1.1649299 0 0 0 1.2123873e-25
-0.019704765 0.21012244 1.0678335 0 0 0 6.6465353e-33
0.55546522 -0.22121708 1.198136 0 0 0 2.6777979e-32
-0.10479046 0.32714275 0.94904357 0 0 0 6.6463464e-33
-0.27562201 0.13797154 0.90055978 0 0 0 6.6463464e-33
0.079163335 0.20680189 1.086715 0 0 0 1.8562918e-27
-0.068989687 0.043969113 1.1042621 0 0 0 1.3563155e-19
0.17966481 0.43661207 1.002717 0 0 0 0.002856924
0.36820978 0.53532416 1.007978 0 0 0 2.7002075e-06
0.20945202 0.51622528 0.97703981 0 0 0 1.0430585e-08
0.023662474 0.056935191 1.1169573 0 0 0 5.4594096e-19
-0.14467348 0.11601018 1.0116349 0 0 0 1.2123873e-25
-0.046915196 0.71633971 1.0491233 0 0 0 6.6946835e-33
0.14720127 0.18312697 1.1075168 0 0 0 2.6777979e-32
0.3566004 0.44156721 1.0421113 0 0 0 6.6463464e-33
0.0025209608 0.61433816 0.98191297 0 0 0 6.6463464e-33
0.35539311 0.43745676 1.0353904 0 0 0 1.8563413e-27
-0.12162103 0.15787216 1.0426046 0 0 0 1.3562824e-19
0.35321045 0.32410479 1.0745693 0 0 0 0.0028568639
0.54626751 0.30760548 1.1039535 0 0 0 2.7151668e-06
0.33093607 0.35739776 1.061651 0 0 0 4.1723254e-08
0.19746412 0.70463711 1.0164839 0 0 0 2.1973695e-18
-0.22332716 -0.11811402 0.77799803 0 0 0 3.0106944e-26
1.0121415 0.054868996 1.4518585 0 0 0 2.6778734e-32
-0.21798632 0.31067735 0.71788532 0 0 0 2.6777979e-32
0.27116278 0.021348776 1.1504345 0 0 0 6.6463464e-33
0.36366677 0.62695545 0.94977337 0 0 0 6.6463464e-33
0.12410105 0.016586617 1.1528672 0 0 0 1.8563413e-27
-0.010945478 0.1602039 1.0807155 0 0 0 3.3695299e-20
0.20368065 0.74548638 1.0934495 0 0 0 0.00071038626
0.051425736 0.15542412 1.0895126 0 0 0 4.3920441e-05
0.30428225 0.73832333 1.021976 0 0 0 1.6783163e-07
-0.27508402 0.071091801 0.87489861 0 0 0 8.8439008e-18
-0.23747289 0.1064641 0.95305163 0 0 0 3.0106944e-26
0.4695414 0.30679417 1.0942276 0 0 0 2.6778734e-32
0.23272017 0.1034411 1.123258 0 0 0 2.6777979e-32
0.036889255 0.32676357 1.0204744 0 0 0 6.6463464e-33
-0.026307484 0.24701671 1.0378418 0 0 0 6.6463464e-33
0.23516928 0.60427135 0.98376012 0 0 0 1.8563413e-27
0.31623551 0.0024611824 1.1540818 0 0 0 3.3694472e-20
-0.20396437 0.37127736 0.83258432 0 0 0 0.00017568175
-0.039972536 0.69115275 1.0087541 0 0 0 0.00017568549
0.32472408 0.63223571 0.97980165 0 0 0 6.7506642e-07
0.44803458 -0.10119125 1.1798767 0 0 0 3.5592447e-17
0.066768304 0.18243706 1.0802615 0 0 0 3.0106941e-26
0.13683826 0.72902292 1.0573 0 0 0 2.6778734e-32
0.079158671 0.60985774 0.89547467 0 0 0 2.6585386e-32
-0.067219369 0.043420993 1.1110208 0 0 0 6.6463464e-33
0.3022753 0.14253962 1.1151491 0 0 0 6.6463464e-33
0.11967628 0.097515374 1.1120615 0 0 0 1.8690124e-27
0.54141134 -0.3757824 1.2221718 0 0 0 8.3706784e-21
0.42689598 0.53328472 1.0067348 0 0 0 4.3681084e-05
0.61522222 -0.20837517 1.2166494 0 0 0 0.00017568177
-0.018282164 0.017826682 1.1429192 0 0 0 2.7152253e-06
-0.061544467 0.35499641 1.0667797 0 0 0 1.4324055e-16
0.37382972 -0.00082860433 1.1645567 0 0 0 3.0106944e-26
-0.074149512 0.48767507 0.94382107 0 0 0 2.6778734e-32
0.38175091 0.48692575 1.010772 0 0 0 6.6463464e-33
-0.23986824 0.14066786 0.93374944 0 0 0 6.6463464e-33
-0.0052725552 0.27173564 1.0256211 0 0 0 6.6463464e-33
0.34934387 0.47734663 1.0182574 0 0 0 7.4758522e-27
0.32208648 0.59797585 0.99175406 0 0 0 8.3706776e-21
0.46467701 0.44338498 1.0670639 0 0 0 1.0860433e-05
0.26836804 0.34661368 1.0538185 0 0 0 0.00017568551
0.34924826 0.47823381 1.0161309 0 0 0 4.3922311e-05
-0.058340259 0.35342079 1.0541817 0 0 0 5.7645886e-16
-0.048135765 0.14766717 1.0657972 0 0 0 3.0106944e-26
0.48785669 0.12519202 1.1356699 0 0 0 2.6778731e-32
0.24822223 0.13180077 1.1181141 0 0 0 6.6463472e-33
-0.054406092 0.59212828 0.99338317 0 0 0 6.6463464e-33
0.37403381 0.23703812 1.1079521 0 0 0 6.6463464e-33
0.12365864 0.28002647 1.0428826 0 0 0 7.4758522e-27
0.95231658 -0.03562196 1.2498131 0 0 0 3.3482711e-20
0.26145428 0.60415059 0.98779106 0 0 0 2.700207e-06
0.028934844 0.48678082 1.0129973 0 0 0 4.3921373e-05
0.036172997 0.33057114 1.0393353 0 0 0 0.00071041629
-0.1532173 0.2456679 0.89773685 0 0 0 2.3336454e-15
-0.23893481 0.37571183 0.86312515 0 0 0 3.0107733e-26
0.048462074 0.5620386 0.97793645 0 0 0 6.6463464e-33
-0.14964288 0.26139033 1.032313 0 0 0 2.6778734e-32
0.15374422 0.40468609 1.0271225 0 0 0 6.6463464e-33
0.035564084 0.33303556 1.056332 0 0 0 6.6463464e-33
0.30044878 0.14435446 1.0947212 0 0 0 7.4758522e-27
0.179562 0.54092747 0.83157432 0 0 0 8.3704708e-21
0.24987893 0.26805949 1.0793239 0 0 0 2.7002072e-06
-0.048727673 0.21882804 1.0606712 0 0 0 1.0920506e-05
0.2313426 0.60197181 0.97919267 0 0 0 0.01148897
0.24669999 0.2651343 1.0523704 0 0 0 9.3905274e-15
0.23687668 0.41489497 1.0337664 0 0 0 3.0309681e-26
0.0058042235 0.093195707 1.0976686 0 0 0 6.6463464e-33
-0.34576255 0.16031754 0.79009116 0 0 0 2.6778734e-32
-0.25858822 0.11521612 0.92182094 0 0 0 6.6463464e-33
-0.27802914 -0.028020486 0.88755596 0 0 0 6.6463464e-33
0.14109918 0.50522739 0.98941463 0 0 0 7.4253651e-27
-0.0014278016 -0.26474366 1.365393 0 0 0 8.3704708e-21
0.36063683 0.58438218 0.99757981 0 0 0 2.7151082e-06
0.054893397 0.63540685 0.97706431 0 0 0 1.0920505e-05
-0.13239272 0.13572906 1.0303658 0 0 0 0.046200976
-0.33348185 0.34636739 0.96238941 0 0 0 1.5114011e-13
-0.044023998 0.27603519 1.0381476 0 0 0 1.2123874e-25
0.39717665 0.22738574 1.0867895 0 0 0 6.6463464e-33
0.53382486 0.23857474 1.1307156 0 0 0 2.6778734e-32
-0.2828033 0.25429916 0.76586366 0 0 0 6.6463464e-33
0.31533757 0.075358965 1.1349417 0 0 0 6.6463464e-33
0.22139998 0.22639492 1.0798815 0 0 0 7.4253644e-27
0.35933793 0.067316152 1.1380025 0 0 0 8.3706776e-21
0.064103305 0.25910386 1.0505657 0 0 0 2.700207e-06
-0.048609044 0.36879805 0.99215013 0 0 0 4.3681084e-05
0.61143327 0.082265936 1.2382276 0 0 0 0.04620098
0.071307935 0.093313672 1.1226656 0 0 0 1.5203178e-13
0.47260717 0.35240254 1.0810927 0 0 0 1.2124189e-25
0.20945548 0.51059246 0.95992994 0 0 0 6.6463464e-33
0.25915164 -0.30727303 1.2219872 0 0 0 2.6778734e-32
-0.24292751 0.05479338 0.9441371 0 0 0 6.6463464e-33
0.3401112 0.19909278 1.2505575 0 0 0 6.6463464e-33
-0.0044115279 0.44184497 1.0251291 0 0 0 1.8563411e-27
0.13587977 0.45107937 0.99658573 0 0 0 3.3482714e-20
0.31029227 0.47487366 1.0197271 0 0 0 6.750372e-07
-0.040768567 -0.14262334 0.69587731 0 0 0 4.3680153e-05
-0.050496902 -0.23860392 0.62613267 0 0 0 0.74705881
-0.046142466 -0.15615331 0.73067254 0 0 0 2.4467748e-12
-0.018921096 -0.18705301 0.72977585 0 0 0 1.220497e-25
-0.20601185 -0.10845278 0.57709068 0 0 0 6.6463464e-33
-0.042800702 -0.15026937 0.71054018 0 0 0 2.6778734e-32
0.92157698 0.22486097 1.4592937 0 0 0 6.6463464e-33
-0.05220487 0.73469025 1.0884651 0 0 0 6.6463464e-33
-0.14487782 0.26040673 1.0143775 0 0 0 1.8563413e-27
-0.17906472 0.0592824 1.0727258 0 0 0 3.3694472e-20
0.12978622 0.57714248 0.97799426 0 0 0 6.7131185e-07
-0.017925447 0.017069038 1.1324397 0 0 0 1.0860433e-05
-0.24041176 0.1108402 0.96412092 0 0 0 3.003983
0.095582992 0.26336774 1.0522435 0 0 0 2.4609856e-12
-0.11924618 0.15627472 1.0356377 0 0 0 4.8821142e-25
0.097830996 0.2698094 1.1093472 0 0 0 6.6463472e-33
0.55814087 -0.22396013 1.2054079 0 0 0 2.6778734e-32
-0.20231566 0.065458335 0.99600178 0 0 0 6.6463464e-33
-0.048721131 -0.15799165 0.73016423 0 0 0 6.6463464e-33
-0.33297411 0.10403089 0.81248617 0 0 0 1.8563413e-27
0.30429184 0.71157461 0.97494739 0 0 0 3.3694472e-20
0.29037929 0.54213828 0.9767524 0 0 0 1.6688935e-07
0.11485765 -0.068711862 1.2088879 0 0 0 2.7002072e-06
-0.13943999 0.78018379 1.1562668 0 0 0 48.816666
-0.085696876 0.70244372 1.2168359 0 0 0 9.8439434e-12
0.32793993 0.94085485 1.2239517 0 0 0 4.9144264e-25
-0.11437776 0.45548162 0.99122757 0 0 0 6.6465353e-33
-0.0017781918 0.62659889 1.0016873 0 0 0 6.6465353e-33
0.4312534 0.5430572 1.0310006 0 0 0 6.6463464e-33
0.28287038 0.49034527 1.0197275 0 0 0 6.6463464e-33
0.49971637 0.6129908 1.0333122 0 0 0 1.8563411e-27
-0.10541686 -0.26980701 0.73263705 0 0 0 3.3694469e-20
-0.0094026672 0.30029595 1.0466465 0 0 0 4.148859e-08
0.97046119 0.33351803 1.4751385 0 0 0 2.7152255e-06
-0.040760923 0.11099691 1.0921285 0 0 0 3156.3921
0.12669498 -0.18857788 0.85516846 0 0 0 9.9010097e-12
0.46263269 0.44221175 1.0602155 0 0 0 1.9658211e-24
-0.18351813 -0.032885298 1.0637989 0 0 0 6.6946842e-33
-0.2555272 -0.14067087 0.82384139 0 0 0 6.6463472e-33
-0.29662287 -0.10580352 0.80351257 0 0 0 6.6463464e-33
-0.043620281 -0.15317231 0.72448468 0 0 0 6.6463464e-33
0.39373142 0.4317672 1.0414665 0 0 0 1.84367e-27
0.41953984 -0.34831414 1.2499436 0 0 0 3.3482711e-20
0.4501521 0.19284573 1.1080782 0 0 0 1.031394e-08
0.00086462259 0.61100227 0.97127348 0 0 0 4.4162607e-05
0.17672086 0.28091708 1.0550103 0 0 0 12753.819
-0.29610881 0.1631777 0.84874946 0 0 0 3.9832304e-11
-0.049912721 0.15104035 1.0804243 0 0 0 7.9151858e-24
0.13331795 0.58485746 0.98947245 0 0 0 6.6948731e-33
0.12708552 0.23510553 1.0449097 0 0 0 6.6463472e-33
0.052855127 0.40851313 0.98515141 0 0 0 6.6463464e-33
-0.76546681 0.07649263 1.1936135 0 0 0 6.6463464e-33
0.49594674 0.41834393 1.0756756 0 0 0 4.6090513e-28
0.20918025 0.45840344 1.0186763 0 0 0 3.3482714e-20
0.13435899 0.59856349 0.94418907 0 0 0 1.0371919e-08
0.4390046 0.0087587992 1.1203805 0 0 0 0.046694066
0.085730903 -0.12140527 0.78005373 0 0 0 51016.281
-0.31704074 0.22308646 0.79895693 0 0 0 1.6024228e-10
-0.42913949 0.47699529 1.0055521 0 0 0 3.1868349e-23
0.39357531 -0.0070065502 1.1434865 0 0 0 2.678025e-32
0.055060577 0.40698895 1.0036116 0 0 0 6.6463464e-33
-0.3153739 0.21977066 0.79070425 0 0 0 6.6463464e-33
-0.42199484 0.47125083 0.98719817 0 0 0 6.6463464e-33
-0.3925944 0.29247126 0.94877279 0 0 0 4.5774964e-28
0.21428517 0.37548551 1.0244634 0 0 0 3.3482714e-20
0.28294435 -0.86418521 1.3292013 0 0 0 4.125485e-08
0.087236568 -0.44226524 1.0870525 0 0 0 3237.022
-0.57677788 -0.54915446 0.64519352 0 0 0 206117.14
-0.38507605 0.52326 1.0201972 0 0 0 6.4462136e-10
-0.29142916 0.54770976 0.95127833 0 0 0 1.2830059e-22
-0.39062911 0.52629679 1.0344701 0 0 0 2.7166192e-32
0.15351053 0.22319421 1.0762845 0 0 0 6.6463464e-33
-0.052781947 0.48053661 1.0211433 0 0 0 6.6463464e-33
-0.23024188 0.02555869 0.88380969 0 0 0 6.6463464e-33
0.033463616 0.50600904 0.98237568 0 0 0 1.1443741e-28
-0.85997868 0.26665598 1.4825138 0 0 0 3.3482714e-20
-0.15442072 0.32522854 0.94401741 0 0 0 1.031394e-08
-0.2562958 0.11626703 0.92356533 0 0 0 2.3450544e+11
-0.091540329 0.21284869 1.0276575 0 0 0 3314322.2
0.0512591 0.58439785 0.97520638 0 0 0 2.5930944e-09
0.19847214 0.60046941 0.96233892 0 0 0 1.2830382e-22
0.52129006 -0.3981356 1.399339 0 0 0 1.0943816e-31
0.32166982 0.12823258 1.1316671 0 0 0 6.6463464e-33
-0.047626369 0.34547889 1.0007876 0 0 0 6.6463464e-33
-0.20894112 -0.18334195 0.68240368 0 0 0 6.6463464e-33
-0.19245565 -0.39906973 0.86916608 0 0 0 1.1443741e-28
0.23962584 0.35668787 1.0345342 0 0 0 3.3695299e-20
-0.75197631 0.064826421 1.3149716 0 0 0 1.0372148e-08
0.10115828 0.49794176 1.0066229 0 0 0 1.7819714e+22
0.037577003 0.51471555 1.0065717 0 0 0 53291300
0.22656654 0.59744149 0.96531302 0 0 0 1.0430813e-08
-0.071710095 0.50084257 0.98524857 0 0 0 1.2913101e-22
0.5432235 0.27935567 1.1096606 0 0 0 1.7633847e-30
-0.37997815 0.5206036 1.0116136 0 0 0 6.6463464e-33
-0.1004604 0.27405259 0.95223677 0 0 0 6.6463464e-33
-0.10393093 0.47461772 0.92740494 0 0 0 6.6463464e-33
0.54945743 -0.39661348 1.2601948 0 0 0 1.1443741e-28
0.31192836 0.20381983 1.0913923 0 0 0 3.3695302e-20
0.17472987 0.27689472 1.056147 0 0 0 4.148859e-08
-0.23491676 0.0057253619 0.97696555 0 0 0 3.4933994e+35
0.21837556 0.22395515 1.067467 0 0 0 53290272
-0.34799385 -0.15128511 0.70497155 0 0 0 4.1724164e-08
0.50095683 0.12706529 1.1620384 0 0 0 5.1653698e-22
0.47196966 -0.38378096 1.342611 0 0 0 1.7633845e-30
0.19497339 0.21501504 1.0911564 0 0 0 6.6463464e-33
0.048355997 -0.1344011 1.1325662 0 0 0 6.6463464e-33
0.14038675 -0.84198517 1.2769638 0 0 0 6.6463464e-33
-0.13130899 0.13036616 1.0170913 0 0 0 1.1443741e-28
0.089851245 0.25397807 0.99333644 0 0 0 1.3478121e-19
-0.40768552 -0.013980167 0.70693338 0 0 0 4.148859e-08
-0.0019863702 0.16537626 1.1164339 0 0 0 -1.2933938e-35
-0.30761784 0.14744925 0.81455594 0 0 0 13191239
-0.61558259 -0.26743913 0.7474032 0 0 0 1.6782799e-07
-0.23508383 0.0062982454 0.96659869 0 0 0 2.0794349e-21
-0.36593631 -0.23413832 0.72825491 0 0 0 7.1028417e-30
0.32253647 0.60032982 0.99487543 0 0 0 6.6463464e-33
-0.004997225 0.27493998 1.0272067 0 0 0 6.6463464e-33
0.13748567 0.29490817 1.05329 0 0 0 6.6463464e-33
0.30017972 0.52717316 0.97331786 0 0 0 1.1443433e-28
0.17290024 0.31644341 1.0319893 0 0 0 1.3478121e-19
-0.14742027 -1.3900069 1.0931137 0 0 0 1.0372148e-08
0.17681104 0.34710255 1.0160151 0 0 0 8.2895582e+37
0.15747669 0.33893776 1.0668398 0 0 0 3297745.8
-0.18803002 0.21109955 0.93261516 0 0 0 6.7506647e-07
0.032835901 0.4824203 0.98616207 0 0 0 8.3708869e-21
0.023365678 0.2791113 1.039785 0 0 0 7.1028417e-30
0.28156504 0.24059512 1.0957319 0 0 0 6.6463464e-33
-0.18160617 0.016518392 1.0485966 0 0 0 6.6463464e-33
0.14335233 0.17868315 1.0691242 0 0 0 6.6463464e-33
-0.012790797 -0.35145807 1.0927563 0 0 0 1.1443433e-28
-0.25540763 0.22705276 0.83103746 0 0 0 3.3695302e-20
-0.14675005 0.31679654 0.92799169 0 0 0 1.0313941e-08
0.174253 -0.067865461 1.1898354 0 0 0 1.7103331e+25
0.48521566 0.076492324 1.2076864 0 0 0 820356.56
0.069089338 0.18380412 1.1055979 0 0 0 2.7301851e-06
0.24103178 0.10604658 1.1573594 0 0 0 3.3696133e-20
-0.25106046 0.17159012 0.92667919 0 0 0 7.1026483e-30
-0.13224769 0.13550609 1.0401386 0 0 0 6.6463464e-33
-0.24892288 -0.052607302 0.97271931 0 0 0 6.6463464e-33
-0.40037608 -0.28163892 0.9942432 0 0 0 6.6463464e-33
-0.1508573 0.32323983 0.95762646 0 0 0 1.1443433e-28
-0.17373832 0.24810421 0.9202342 0 0 0 3.3695302e-20
0.07446482 0.35523129 1.0125872 0 0 0 4.1489507e-08
0.18191512 0.3470239 1.0309814 0 0 0 1.4245138e+13
-0.23571946 0.21127675 0.90375996 0 0 0 205097.17
-0.13202463 0.12900637 1.0139159 0 0 0 4.3922319e-05
0.047024947 -0.80208439 1.1535621 0 0 0 3.3908721e-20
0.036643974 -0.85686594 1.2070812 0 0 0 7.0533445e-30
-0.28320467 -0.028613737 0.90341055 0 0 0 6.6463464e-33
0.64024699 0.071713112 1.2688118 0 0 0 6.6463464e-33
0.31458735 0.19155185 1.1160939 0 0 0 6.6463464e-33
0.095576532 -0.056198671 1.2044674 0 0 0 1.1364547e-28
-0.078583293 0.23630875 1.020833 0 0 0 1.3563155e-19
-0.33599472 0.072299898 0.78374326 0 0 0 1.6689299e-07
0.32110012 -0.36658934 1.4362833 0 0 0 3248271.8
0.31879345 -0.36686704 1.4378989 0 0 0 207149.17
-0.085719995 -0.010853091 1.1202389 0 0 0 0.00071041635
-0.0035071983 0.19128086 1.0558699 0 0 0 1.3648524e-19
-0.35267502 -0.042532176 0.78317201 0 0 0 7.0533445e-30
-0.32707447 -0.026958564 0.83457989 0 0 0 6.6463464e-33
-0.55698431 -0.19857515 0.34410593 0 0 0 6.6463464e-33
0.083099939 -0.22455686 1.153672 0 0 0 6.6463464e-33
0.1798989 -0.77144396 1.1608599 0 0 0 2.8411364e-29
-0.58952379 -0.35414436 0.5614453 0 0 0 1.3563155e-19
-0.10548606 0.33368269 0.88468009 0 0 0 1.6782431e-07
0.030974545 0.43239698 1.0049502 0 0 0 807971.88
-0.10892315 0.33156464 0.98547459 0 0 0 3330770.5
-0.29483774 -0.17110632 0.91976672 0 0 0 0.0028723027
-0.2188018 0.15969068 0.94136602 0 0 0 5.4934243e-19
0.058106981 0.31351301 1.0034333 0 0 0 7.0533445e-30
-0.27111894 0.13492395 0.87266272 0 0 0 6.6463464e-33
0.073111027 0.35641253 1.0089442 0 0 0 6.6463464e-33
0.49601346 0.17300497 1.1159047 0 0 0 6.6463464e-33
-0.1661301 0.35093462 0.87030548 0 0 0 2.8213378e-29
-0.27871782 0.28897479 0.79945308 0 0 0 1.3563155e-19
-0.55220836 -0.26471561 0.61023295 0 0 0 1.66893e-07
0.1541907 0.12431166 1.1198486 0 0 0 12992829
0.47597066 0.0031829597 1.2120552 0 0 0 13257032
-0.22627537 -0.1271462 0.9762435 0 0 0 0.046447042
-0.660981 -0.40541074 0.53577173 0 0 0 2.2109752e-18
-0.36661521 -0.03847615 0.75472724 0 0 0 7.0535379e-30
-0.24517766 0.17671886 0.82719076 0 0 0 6.6463464e-33
0.098938078 -0.82049942 1.2867725 0 0 0 6.6463464e-33
-0.56294852 -0.26780346 0.3698726 0 0 0 6.6463464e-33
-0.12157125 0.20929033 0.98936152 0 0 0 7.0533438e-30
-0.37455651 -0.091403954 0.73851115 0 0 0 1.3563156e-19
-0.0077531245 0.30629405 0.94029248 0 0 0 1.66893e-07
-0.51535213 -0.087353908 0.87407631 0 0 0 12992829
-0.484063 -0.44666663 0.73334682 0 0 0 3297809.8
0.14779621 0.029649181 1.1514688 0 0 0 0.75099581
