# .PCD v0.7 - Point Cloud Data file format
VERSION 0.7
FIELDS x y z
SIZE 4 4 4
TYPE F F F
COUNT 1 1 1
WIDTH 296
HEIGHT 1
VIEWPOINT 0 0 0 1 0 0 0
POINTS 296
DATA ascii
-0.12654075 -0.42226061 0.94103682
-0.68884933 -0.80113876 0.57336205
-0.20939137 -0.52340943 0.64315152
-0.46555713 -0.45763341 0.65166003
-0.86588001 -0.85415238 0.56718063
-0.61172742 -0.75037616 0.65381658
-0.31821114 -0.33166704 0.82859844
-0.071207017 -0.45111093 1.3892014
-0.20920508 -0.51841676 0.63577956
-0.50689286 -0.87134665 0.69645613
-0.52256942 -0.51268905 0.72013777
-0.48569658 -0.60018557 0.65993696
-0.64251637 -0.58619606 0.49929973
-0.23005545 -0.6609354 1.0061616
-0.39136645 -0.26358631 0.7655701
-0.78153801 -1.3416917 0.86193824
-0.63871557 -1.317709 0.81516075
-0.56714296 -1.1197674 0.71489143
-0.46021059 -0.45194682 0.62878996
-0.73265749 -0.82647657 0.60035998
-0.54176277 -0.5077253 0.39671651
-0.59370273 -0.49276778 0.57146102
-0.63417983 -0.57747471 0.48289874
-0.55043441 -0.43350986 0.56120503
-0.62993819 -0.55769974 0.62175995
-0.85177618 -0.84477508 0.54996777
-0.49653396 -0.32903507 0.59755802
-0.73769581 -0.82927078 0.60597074
-0.35659659 -0.28515962 0.83714265
-0.41133803 -0.2568551 0.73298198
-0.67554355 -0.61485028 0.56242973
-0.64095378 -0.46778879 0.56717914
-0.36464193 -0.37948981 0.67097908
-0.26815972 -0.29756805 1.0310318
-0.60188305 -0.55377436 0.46149993
-0.23717049 -0.17637266 0.94908631
-0.032697838 -0.24770898 0.96702474
-0.14936571 -0.16898842 1.0367799
0.36101663 -0.85423899 1.6796271
-0.39469221 -0.26256797 0.70474935
-0.22158112 -0.56864512 0.80605197
-0.41032279 -0.33146676 0.7014991
-0.058285777 -0.43010667 0.84503168
-0.42860368 -0.25633302 0.70358878
-0.58647406 -0.44345427 0.30916655
-0.4919543 -0.5236519 0.9496426
0.32588467 -0.88444018 1.6468569
-0.6032694 -0.46467957 0.56138134
-0.41178688 -0.3327297 0.70582253
-0.34787455 -0.2826204 0.80572933
-0.4363983 -0.42799953 0.6362074
-0.52880001 -0.50360346 0.57410288
-0.43492261 -0.31906241 0.66622096
-0.37991694 -0.39999944 0.78928894
-0.59683955 -0.66960627 0.41526181
-0.53173411 -0.50047541 0.54237163
-0.54604626 -0.52029943 0.61180764
-0.61285669 -0.7589767 0.64603978
-0.48539287 -0.28874287 0.61978698
-0.6276322 -0.43986896 0.68856722
-0.32189414 -0.32068092 0.30343223
0.15766712 -0.50159496 1.018916
-0.29847884 -0.34774917 0.6730119
-0.32073054 -0.486745 0.76774639
-0.3534455 -0.36503285 0.800708
-0.5490855 -0.33304644 0.58499616
-0.21554279 -0.16177076 0.89526695
-0.25125194 -0.59221351 0.74664813
-0.18848187 -0.50846058 0.81020033
-0.58730948 -0.43101889 0.59774172
-0.39496842 -0.49876508 0.48334852
-0.28105584 -0.70011556 0.88174826
0.32741806 -0.77204734 1.3867284
-0.65677714 -0.4534865 0.41477609
-0.58307886 -0.44127733 0.30387041
-0.28015 -0.23941165 0.82081991
-0.25316668 -0.28909454 0.86804485
0.67477471 -1.6763873 2.9807773
-0.55050236 -0.52480114 0.61875027
-0.54495305 -0.51921993 0.61030751
-0.040722206 -0.2968289 1.0349294
-0.37347391 -0.39318171 0.8719694
0.33577839 -0.79733104 1.5712141
-0.20976843 -0.18243733 0.95603853
-0.098991431 -0.24308269 0.77325356
-0.51531386 -0.51346076 0.66960347
-0.56472689 -0.51939005 0.49903309
-0.48173833 -0.34956208 0.61853886
0.38494724 -1.0142909 1.7061731
-0.059188839 -0.20402949 1.1051835
-0.60465139 -0.42560419 0.64788359
-0.24125051 -0.55821228 0.6027205
-0.50666654 -0.48225948 0.35022444
-0.1526565 -0.16943398 1.0442439
-0.69621211 -0.81065494 0.58512473
0.10453742 -1.0115354 1.2998589
0.082304627 -1.276227 1.512373
-0.39238942 -0.49732062 0.47940558
-0.11176659 -0.36585945 0.74405044
-0.51037586 -0.33313495 0.62820464
-0.55864805 -0.8292256 0.68957365
0.07840807 -0.95700806 1.0691634
0.1124979 -1.0453618 1.2247163
0.30503526 -0.85284162 1.389771
-0.21736968 -0.15808471 0.94928354
-0.34692425 -0.2805278 0.78577858
-0.659307 -0.46032253 0.57130921
0.25530139 -0.90109587 1.5344963
-0.41168079 -0.3326388 0.70243204
0.39887416 -0.90621674 1.2848222
-0.66905636 -0.57065225 0.48308229
-0.43881264 -0.42768931 0.32289219
-0.60168707 -0.55387777 0.55227739
-0.43749774 -0.42228523 0.61858177
-0.58998954 -0.32499379 0.41236174
-0.29148585 -0.3124834 1.2058872
-0.60143304 -0.41327512 0.38848442
-0.50905597 -0.46928152 0.39822468
0.05255276 -0.37821543 1.0876132
-0.22350475 -0.23504241 1.0078079
-0.11004417 -0.37180409 0.78186876
-0.48980817 -0.68467551 0.47371489
-0.065453939 -0.20277339 1.1311318
-0.74110603 -0.68196684 0.88444811
-0.21228765 -0.5175128 0.59834498
-0.1347207 -0.27080974 1.0377169
-0.50983185 -0.2991012 0.67669117
-0.34005472 -0.88354468 1.1236635
0.11474162 -0.51217556 0.99594826
0.0014922597 -1.1883544 1.2584206
-0.35763392 -0.2504718 0.7341882
-0.67716891 -0.57724386 0.49249217
-0.63328844 -0.54252237 0.56058419
-0.4922356 -0.42671919 0.64238143
-0.59818733 -0.33824524 0.73585242
0.033521019 -0.23999575 1.1185865
0.28463545 -1.0264503 1.2912996
-0.62679917 -0.58012366 0.747356
-0.068949819 -0.18515094 1.0287572
-0.11798886 -0.4362779 1.0297674
-0.11150694 -0.40373182 1.0044633
-0.080153719 -0.34644383 0.99733931
-0.24609546 -0.60690475 0.71897584
-0.3869482 -0.29959211 0.70769584
0.21968079 -1.0169946 1.273826
-0.65494984 -0.92773116 0.77079028
0.41831341 -0.99997485 1.3754183
-0.53819686 -0.53399754 1.0392743
-0.2201997 -0.20610267 1.0131564
0.050556995 -0.35809916 0.99951649
-0.52890587 -0.65100849 0.49688807
-0.54746854 -0.67645431 0.69776183
-0.52448595 -0.26505274 0.79637241
-0.68241858 -0.83741128 0.62942916
-0.63766605 -0.93756801 0.79300922
-0.22315328 -0.2774753 0.99566829
-0.092973284 -0.23593035 1.2314525
0.20688599 -0.92740953 1.4160936
-0.57319236 -0.46982759 0.56919676
-0.39886078 -0.39200625 0.33983842
-0.33981782 -0.34573019 0.743366
0.21151035 -0.92625314 1.3060263
0.11648311 -1.2523165 1.4360416
-0.45599604 -0.44871843 0.73589128
-0.58191323 -0.81312186 0.8178612
-0.51379645 -0.6326524 0.72751826
-0.075109325 -0.27380669 0.98662859
0.056199253 -1.0117948 1.093307
-0.3891052 -0.26195669 0.74729002
-0.27311274 -0.29523557 1.0127107
-0.49197832 -0.42665908 0.63868058
-0.5974682 -0.44790384 0.32278517
-0.50665301 -0.24666715 0.7969358
-0.10689685 -0.27982694 0.96826267
-0.2038886 -0.67136639 1.1663644
-0.61467832 -0.60646856 1.1546255
-0.542395 -0.67410648 0.44354281
-0.64164448 -0.58457702 0.6253556
-0.10726121 -0.11958885 1.0723557
-0.30942243 -0.32342678 0.72886413
0.27692029 -0.9111321 1.5416317
-0.41829005 -0.33612227 0.72759378
-0.80687678 -0.65718132 0.52359062
-0.49832612 -0.32800642 0.6016739
-0.31749153 -0.19491567 0.8339861
-0.25505623 -0.68836337 0.96668863
0.21072444 -1.0658938 1.4101468
-0.40943748 -0.24135409 0.69480467
-0.30434364 -0.72544032 0.7547664
-0.44044167 -0.30584925 0.66096747
-0.28648466 -0.75367534 0.99084735
-0.67578173 -0.83088297 0.61894947
-0.37547863 -0.24801382 0.85568744
0.26723456 -0.83520901 1.4551684
-0.55507809 -0.68502736 0.72266263
0.26109821 -0.85586643 1.1999104
-0.48783848 -0.47564906 0.6530543
0.2893444 -0.89079326 1.5766262
0.50898254 -1.2956458 2.4084463
-0.31997696 -0.73296458 0.80426449
-0.099901803 -0.3821511 1.0828278
0.21256419 -1.3708236 1.4985596
-0.42434669 -0.42174882 0.7179904
-0.40086576 -0.34589466 0.84549719
-0.34580556 -0.28022406 0.78640193
0.11016685 -0.99033684 1.0870179
-0.22307539 -0.23234054 1.0189289
-0.65653282 -0.59118086 0.84631896
-0.68257165 -0.84077632 0.63272762
-0.17667638 -0.38697749 1.2132607
-0.089618638 -0.27981764 1.1299626
-0.51723045 -0.63955438 0.74545676
0.11946902 -0.91441911 1.1057757
-0.66556889 -0.82280427 0.60233855
-0.44755432 -0.50085145 1.5805554
-0.070395306 -0.36392161 1.2405447
-0.39150372 -0.39289081 0.53575605
0.011521133 -0.45988342 1.2905961
-0.43274263 -0.42574984 0.12074424
-0.53508621 -0.42649165 0.64394993
0.3780691 -0.65482986 1.6929252
0.15945143 -0.68874472 0.97968471
-0.084721737 -0.39845753 1.2087004
0.48541579 -1.4856395 2.5406899
0.102888 -0.72220606 0.98278064
-0.18719317 -0.39877889 0.76734549
-0.96186215 -0.86728978 1.2217796
0.30312213 -1.0729771 1.7526839
0.23564345 -0.82311243 1.4126285
0.15214638 -1.2990352 1.6572443
-0.3387458 -0.34913868 0.6278227
-0.24700597 -0.26911187 0.94056612
0.0095570227 -0.49195737 1.046955
-0.091856845 -0.26193678 0.97162151
-0.26313657 -0.46257767 1.1094582
-0.11118355 -0.12623511 1.0338835
-0.2167106 -0.20409022 0.9955222
-0.067888081 -0.2593779 0.92196518
-0.2220712 -0.23084737 0.9745447
-0.25163981 -0.30076864 0.9003132
-0.24137771 -0.26650533 0.6680178
-0.27396032 -0.22420056 0.87581521
-0.1089825 -0.1270263 1.0402389
-0.05895061 -0.15152007 1.0625743
-0.046564147 -0.24540429 0.92093599
-0.079374604 -0.35052556 1.0056255
-0.1948384 -0.2040908 0.97524327
-0.12597303 -0.26634452 0.8691563
-0.21512751 -0.2019586 0.97720516
-0.054065622 -0.25440466 0.95931172
-0.27779478 -0.3245348 0.89586884
-0.27327162 -0.18601967 0.91103715
-0.31321841 -0.19882685 0.82901239
-0.21978565 -0.2055243 0.9831779
-0.20274724 -0.21686655 0.53639978
0.02378219 -0.24201097 1.1102912
-0.022311514 -0.34471864 0.68882471
-0.095745966 -0.31456113 0.55300122
0.042247873 -0.36170524 1.0048842
-0.070443995 -0.26118889 0.67968988
-0.21781017 -0.15437673 0.96977472
-0.18372333 -0.60431927 1.0123893
-0.15905981 -0.54003555 1.0053474
-0.021489281 -0.69208747 1.2658433
-0.52805078 -0.27913114 0.75953895
-0.40219826 -0.25733024 0.67650121
-0.57858598 -0.42918572 0.45209849
-0.67496943 -0.86800247 0.96512067
-0.61928922 -0.78962886 0.83699507
-0.42075536 -0.27143347 0.7387839
-0.031962745 -0.29860115 0.9819864
-0.2527146 -0.16689155 0.93979937
-0.35933354 -0.30348817 0.61527455
-0.18635242 -0.67355794 1.2440497
-0.55398965 -0.4038848 0.327225
-0.56815773 -0.38459498 0.27197745
0.064655095 -0.3068037 1.120757
-0.52231711 -0.5066871 0.86951125
-0.52772075 -0.28144899 0.7632606
-0.52452677 -0.27907112 0.74819666
-0.2809042 -0.22254567 0.88917065
-0.43543643 -0.42492491 0.63084543
-0.26185092 -0.28030649 0.75684094
-0.12808426 -0.18288532 1.0348346
-0.49422935 -0.42787817 0.64601803
0.3117933 -0.70226443 1.2383956
-0.48483306 -0.31452525 0.476614
-0.4386664 -0.43371996 0.68190271
-0.6567238 -0.6383853 1.258531
-0.282478 -0.31025562 0.97067571
0.10550889 -0.40109062 1.3209467
-0.25729442 -0.29486197 1.0153662
0.025847064 -0.2976371 1.1132301
-0.16310094 -0.26854736 1.055445
-0.21156572 -0.19369525 0.91071272
-0.29273683 -0.71377617 0.86545646
