# .PCD v0.7 - Point Cloud Data file format
VERSION 0.7
FIELDS x y z
SIZE 4 4 4
TYPE F F F
COUNT 1 1 1
WIDTH 510
HEIGHT 1
VIEWPOINT 0 0 0 1 0 0 0
POINTS 510
DATA ascii
0.23782758 0.29174182 0.89194936
0.41897914 0.11287026 0.93797356
0.36694488 0.048931152 0.92954516
0.31791517 0.23703243 0.86804873
0.084042542 -0.088263124 0.94209313
0.045257181 0.28616053 0.88377446
-0.013670695 -0.06373857 0.87770307
0.27564573 0.31609666 0.87479597
0.41815171 0.17882329 0.84518647
0.34183407 0.16463706 0.85656399
0.32908681 0.26329228 0.82835114
0.30957803 0.2298059 0.84402382
0.19320402 0.30221206 0.89189744
0.42881075 0.037976801 0.93783528
0.12941058 -0.22380757 0.88348597
0.39703071 0.13153525 0.92248213
0.34067944 0.076310143 0.90592444
0.31810391 0.23319474 0.86759245
0.28641662 0.26839283 0.89380413
0.80902517 0.16557769 1.2792891
1.1538912 1.7350154 3.9570081
0.58265632 -0.63175422 1.334639
0.46681666 0.047893893 0.96697247
0.54890764 0.27668458 1.0631526
0.16245297 0.25562257 0.87713724
0.10525274 0.037654106 0.94835818
0.10967889 0.18111145 0.93961388
0.21060422 0.07735493 0.90856522
0.23271634 0.030110594 0.98002738
0.1617084 0.18416783 0.93143022
0.26368582 0.29005855 0.87898052
0.19522209 0.30899289 0.86348987
0.25280291 -0.031244144 0.98864239
-0.081648789 0.11860011 0.88245457
0.22908047 -0.15203567 0.95565975
0.41430557 -0.15706907 0.90016574
0.15410329 -0.20281209 0.92869312
-0.01363556 -0.060803317 0.86145252
0.17513287 0.38215607 0.96854609
0.28529775 0.14537627 0.92672271
0.37053636 0.01279027 0.92632335
0.18294033 -0.11522352 0.9666416
0.25778782 0.087345861 0.96689945
0.38755092 0.23056576 0.81601208
0.31828302 0.05868442 0.94176227
0.21603401 0.23264956 0.90403008
-0.039043494 0.16955923 0.88703084
-0.016547533 0.046831042 0.90449053
0.10969733 -0.085505597 0.9306975
-0.13171212 -0.028860385 0.77018374
0.1682291 0.13116124 0.9741689
-0.16051351 -0.061182711 0.71140224
0.34405741 0.073550306 0.95777059
-0.14610545 0.2193314 0.81826758
-0.27754676 0.21016002 1.0397737
-0.54268116 0.20621839 1.0214316
0.14941072 -0.18009558 0.94346535
0.14778721 -0.035705753 0.98678118
0.10162452 -0.023705874 0.93615377
0.2321227 0.16157731 0.92357266
0.30200297 0.34279427 0.94716048
-0.74946284 0.11273932 1.5248272
0.085792921 -0.087659441 0.94965005
0.46265692 0.25689936 0.92377228
-0.1341583 -0.029768627 0.78765666
0.39234364 -0.1256776 0.95583946
-0.22671846 -0.039067693 0.67838264
0.35475001 0.079668991 0.93644142
0.27972803 -0.18354157 0.97846437
-0.10242416 0.08707992 0.86454493
0.19729592 -0.051328138 1.0867975
0.78966248 0.15919608 1.2482165
0.43077847 -0.42131227 0.95174336
0.4211424 -0.18272391 0.94598782
-0.70049936 0.23984772 1.7375125
0.30560452 0.1248942 0.91719699
0.26228413 0.29203439 0.88211983
0.28546265 -0.0047789929 0.98187053
-0.0082678497 0.11003637 0.85699987
0.01952618 0.082510389 0.93507433
0.099373013 0.070496887 0.9657017
0.2446073 0.20962469 0.91385239
0.16335437 0.18568058 0.94169605
-0.013073533 0.37071723 0.98766726
2.0192523 -1.5582168 3.3887649
0.21504141 -0.23292911 0.92545098
-0.072787508 0.2790572 0.87579989
0.29288629 -0.14029211 0.96993476
0.36887202 -0.06272243 0.96082044
-0.32706013 0.15590464 0.82309437
-0.15114409 0.038880557 0.77755517
0.11059725 0.18217047 0.95005333
-0.12396739 -0.073929325 0.78537595
0.21808763 0.23022677 0.90487736
0.15401435 0.24419056 0.83311862
0.42003018 -0.41029942 0.92905098
0.50097662 -0.54145801 1.1447824
0.35009545 -0.26276898 0.93283141
0.34650469 0.0059379367 0.94627076
0.35118586 0.16828527 0.87947536
0.080387145 0.29126289 0.91420072
0.091815539 0.067298673 0.92569959
0.059175257 0.18393518 0.93660164
0.21308845 0.074462906 0.92785054
0.39148083 0.22521621 0.95352793
-0.10895444 0.27968478 0.91328996
0.44473311 0.15520969 0.81858349
0.29738286 0.1695158 0.90996879
-0.052457228 0.12353989 0.81679255
0.30240232 0.12368286 0.91041934
0.22061986 0.026435427 0.95466024
0.096595101 0.2806423 0.82217342
0.06624411 0.007825817 1.1251204
-0.4658851 0.24891941 1.0383184
0.3948139 0.13993479 0.86449218
0.17058228 0.37936181 0.94689649
0.44040021 -0.4332608 0.98030245
-0.13643621 -0.032444794 0.79282355
-0.077433653 -0.10508056 0.80468589
0.44736084 -0.066623867 1.0202932
-0.038442016 -0.089289166 0.84862834
0.34673426 -0.21077101 0.97788417
0.23739418 -0.15797195 0.9896971
0.33077714 0.025673073 0.9750492
0.20901214 0.049281869 1.0006411
0.11222919 0.30829379 0.9029122
-0.073295094 -0.16467945 0.40309572
0.3363519 0.071961001 0.93909061
-0.0075600082 0.11928965 0.93232596
0.17291413 0.003925798 0.95326865
0.14329503 -0.033312995 0.95139581
0.20360537 0.19647877 0.91237652
0.38511884 0.27922201 0.90294826
0.17961399 0.0086722672 0.98252773
-0.073126234 0.27572694 0.87366402
0.36761019 -0.27208677 0.97270298
0.28302512 -0.24036971 0.90727305
0.48134297 0.27024406 0.95988345
0.36457863 0.26707965 0.85999501
0.39857078 0.2111 0.90526766
0.11031531 -0.089215964 0.93845403
-0.74184471 0.11255592 1.5084134
0.3713716 0.1948875 0.8390584
0.18867454 0.29831484 0.88023555
0.035697445 -0.021255331 0.9359411
-0.036485493 0.24616408 0.87339985
-0.037895851 -0.15710711 0.52020854
-0.29912594 0.12866025 0.91333222
0.29966834 0.28244212 0.93693793
0.16295922 0.17698754 0.94137323
0.082702108 0.24829139 0.86371052
-0.041081332 -0.087206945 0.8397308
0.36745059 -0.27792442 0.97828114
-4.2987871 -0.10370892 8.6628342
0.45359764 0.10498384 0.85700172
0.00030626066 0.065537855 0.93362987
0.32347012 -0.028793938 0.9640336
-0.2039289 -0.016731622 0.70237136
0.22720532 0.03018325 0.95928431
0.04211954 0.023594297 0.933213
0.30340201 0.14438005 0.85578668
-0.23170556 -0.039822087 0.69751686
0.32327899 0.15036449 0.90471816
0.12787658 0.04463166 0.97348028
0.25499028 0.25704008 0.92866021
-0.62666929 0.11865826 1.1387085
-0.18926603 0.0012709702 0.78856456
0.56933492 -0.053511769 1.0271422
0.23407152 0.13578798 0.91139448
0.1249794 0.19767374 0.94528943
0.3016758 -0.037795253 0.98254848
-0.23507509 -0.078802489 0.78348464
-0.092127703 0.098431185 0.82878762
0.28672755 -0.0043719313 0.9813112
0.14533059 -0.17655873 0.92608827
-0.18771009 0.032259382 0.86302364
0.15059645 -0.034489367 0.997684
0.20916961 0.097042836 0.96109921
0.34161338 -0.10864677 0.96317583
0.00044346595 0.065392837 0.9098193
0.64985883 -0.35853544 1.3245404
0.0078742364 0.080023818 1.1009865
0.41816148 -0.18116459 0.94177824
0.52980423 0.11953757 1.4131367
-0.066487372 -0.0014172841 0.85302776
0.046211157 0.057275012 0.94433737
0.28140402 0.15998019 0.86388493
-0.25755319 0.21487454 0.91296768
0.13529693 0.30690521 0.87997276
0.35275114 0.0052852733 0.95742244
0.36229739 -0.16910222 1.0078977
-0.054608501 0.011753859 0.90333962
0.34142607 0.20989956 0.95190221
-0.1686914 0.19132632 0.791044
-0.064713001 -0.035457246 0.8480863
0.055369727 -0.048080113 0.96574295
-0.23429421 -0.054173607 0.53936356
-0.16510642 -0.061207116 0.73311043
-0.18787138 -0.0022397621 0.69414705
-0.22642249 0.16255395 0.83008653
0.20665199 0.094718486 0.95604724
-0.036404472 0.17313261 0.89538938
0.43543753 -0.2274836 0.87356699
0.11532981 0.39560461 1.0206796
-0.10414484 0.27463752 0.90641361
0.32563293 -0.028966922 0.96724927
0.028485006 -0.075838201 0.89137459
0.16182409 0.24796823 0.91544306
-0.29850835 0.1278982 0.91750932
-0.016846359 0.046776779 0.88717008
-0.22438705 0.088960566 0.66405118
0.25069022 0.14427966 0.97115403
0.14278728 0.059940681 1.0470461
0.35528889 0.052711431 0.90514112
0.31400356 -0.16849965 0.99554646
-0.29867044 0.32555172 1.011741
-0.29659075 0.24042219 0.88904232
-0.24274558 -0.041487031 0.73772895
-0.20489514 -0.016742721 0.70999914
0.36391687 0.28084511 0.94239473
0.35104033 0.19070598 0.92187101
-0.06569574 -0.15822512 0.41425455
0.19286436 0.29905793 0.89455336
0.12086668 0.11171555 0.94409728
0.39136314 -0.12714431 0.95604157
0.25897664 0.088776328 0.97744632
-0.0019175493 0.53184873 1.4117862
0.44145426 -0.081834175 0.89938974
0.25830668 -0.24372619 0.98270088
-0.066750169 -0.15850458 0.41225371
-0.20673651 0.21101859 0.90250659
-0.0016210361 0.15910286 0.88010502
-0.044325657 0.22810733 0.90467352
-0.10729493 0.27456614 0.8987118
0.1690968 0.12680621 0.95814431
-0.038213283 0.26142329 0.93306804
-0.044246137 -0.23155725 0.51350492
-0.19385031 0.053128857 0.82261336
1.2999951 1.9489297 4.439764
-0.10051368 0.11469513 0.94344062
-0.16405804 0.024071047 0.73253375
-0.097385138 -0.024584332 0.80429685
0.32000017 0.057227958 0.94549477
-0.202427 0.0012034844 0.85500991
-0.08194419 0.11899081 0.88728285
0.24917372 0.30486178 0.92590153
0.30869725 -0.086943902 0.97665882
-0.13321032 0.088573255 0.83149666
0.14353949 0.098261714 0.96817911
0.25297689 0.12866265 0.93422663
0.42785415 0.31050807 0.99706745
-0.16887088 -0.0041986951 0.60477507
0.4111852 0.11064362 0.91949385
-0.2343244 -0.052281208 0.62224799
0.25149044 0.065248288 1.007543
0.26418641 0.29367509 0.89400208
0.10561534 -0.026692694 0.953345
-0.096043393 -0.024121819 0.79359555
-0.20456065 -0.045122307 0.65049696
0.25239792 -0.030037327 0.98375612
0.24150033 0.18915738 0.9323858
0.31269524 -0.073833078 0.96737081
0.22836822 -0.032957736 0.98576844
0.34782523 0.18548436 0.94702297
0.060717434 0.15897097 0.96660686
0.072078481 0.074801251 0.95397449
0.37812573 0.19912073 0.85743999
0.36896026 0.17416297 0.91962832
-0.12194795 0.14864786 0.92750901
-0.49331668 0.18331948 0.92480469
-0.1026647 0.089283049 0.88788182
-0.13619801 0.049512677 0.83580351
0.2443455 0.20564231 0.89570057
-0.1630501 0.20398906 0.79705048
-0.14040546 0.095088229 0.9022274
0.015703866 0.25263682 0.92961025
-0.19663215 -0.016212471 0.67487437
-0.28646034 0.023679586 0.77262837
-0.14454629 0.10461978 0.85559231
-0.11316328 0.17766139 0.88627249
-0.24225534 0.17855068 0.9026553
0.020548785 0.20755352 0.92046374
-0.20436685 -0.017825404 0.70714545
0.01973623 0.03436514 0.90729707
0.28390574 -0.13524574 0.93731207
0.019941194 0.083719939 0.93984067
0.16421419 0.12968639 0.94914293
0.21846089 -0.13781807 0.97400439
0.4483172 0.066406518 0.89008093
0.22438161 -0.25761986 0.87587261
0.079221182 0.28120655 0.88696164
-0.14797132 0.10650614 0.88029319
0.008784174 0.18730715 0.90288103
-0.18991491 -0.10254344 0.747805
-0.10278123 0.093568087 0.9129898
-0.17357984 0.1715522 0.84586066
0.073319018 0.078233279 0.96257132
0.14474502 0.20261483 0.92608994
-0.14322315 0.057276413 0.89929897
0.27698416 0.16588975 0.93999261
0.017342823 0.2550011 0.95916122
-0.17317581 -0.076261684 0.73371381
0.29003373 -0.37951717 0.91910678
0.24001977 0.27433941 0.89777529
0.095315717 -0.30349511 0.63775939
-0.082245775 -0.14416286 0.38991362
0.20637091 0.16091481 0.98299205
0.16774003 0.36563686 0.92063099
0.017182183 -0.18143204 0.5002594
-0.24748598 0.090948828 0.91535383
0.15321435 -0.096067294 0.94940907
0.22546998 -0.24957635 0.97929001
-0.20227179 0.29191053 1.0143251
-0.11500268 0.22145116 0.89916766
0.065442361 0.19104259 0.9736712
0.039034598 0.26562321 0.92161953
-0.14241219 -0.081116423 0.75630611
0.36657342 0.12446324 0.8654477
-0.033823639 0.25262499 0.89555305
8.1647695e-06 0.067855999 0.93312252
0.22096768 -0.13905746 0.98064184
0.10118952 -0.021101324 0.92067784
0.015473916 -0.16415142 0.58671576
0.041764636 0.27286503 0.96552438
0.015820863 -0.18318388 0.50896806
0.15610105 0.23459044 0.86850476
0.051617041 -0.13570154 0.90808958
-0.22682258 0.069355711 0.62688655
0.32893708 -0.44192693 1.0360621
0.12960893 0.11400668 1.0344168
0.1471104 -0.21385129 0.71051937
0.1996482 0.31667137 0.88351029
0.23309228 -0.083111204 0.97126031
-0.083764128 -0.013559006 0.81534863
-0.043834671 -0.10971632 0.31429243
0.37175691 -0.27673754 0.98526543
-0.057838205 -0.052024122 0.82674134
0.072580688 -0.085948467 0.86182052
-0.27426493 0.39537203 1.4805728
-0.129961 -0.10003269 0.72665614
0.034374785 -0.17991602 0.82610267
-0.18603775 0.023736449 0.59537143
-0.068486616 0.26571557 0.83326894
0.1899322 -0.27780101 0.79559135
0.21582597 -0.23589316 0.94383156
-0.19038261 0.10988359 0.59244412
-0.0272884 -0.12221766 0.65079498
0.2371816 0.1879939 0.91925758
0.27299526 -0.37978241 0.89278156
-0.19675887 -0.0023583109 0.7279858
0.22933058 0.085391432 0.99414992
0.12553439 0.11298838 0.99048859
-0.24853115 -0.11800391 0.63301963
0.24488102 0.22164103 0.86407381
-0.25941971 -0.041931733 0.79223084
0.063505508 0.18409881 0.92619801
0.11361519 0.17748222 0.9630627
0.17592572 0.33584365 0.83228761
0.12994365 0.11561193 1.0282936
0.16909538 0.27361095 0.77903557
0.3140434 0.07218232 0.87635726
0.20713118 0.18866116 0.98614538
-0.0030024752 -0.050470971 0.88780951
0.063459083 0.18225417 0.95268774
0.037605803 -0.020939859 0.9772405
-0.18817869 -0.10140007 0.74210733
0.021102127 0.037362061 0.93559271
0.14916094 -0.17895091 0.93443233
-0.06188694 -0.1354062 0.3637076
0.16397345 0.18277663 0.94468927
-0.043541659 0.22706932 0.9067269
-0.054521829 -0.073719196 0.82872391
0.041224618 -0.069515824 0.90040201
-0.0074136285 0.25355285 0.91404569
0.04188747 -0.068415344 0.9120056
-0.025310759 -0.05089974 0.83387083
0.15409423 -0.096308298 0.94109362
0.22278109 -0.140218 0.98734534
0.26976526 0.071412086 0.95324904
0.16219255 0.24945951 0.84950054
-0.1356442 -0.10515115 0.76603693
0.17119165 -0.10487068 0.91560411
0.10717481 -0.023638539 0.97690535
0.053273611 -0.037940625 0.88667941
0.041049216 0.026542014 0.86640316
-0.036289982 0.064470708 0.87364537
-0.0344394 0.10704482 0.88611543
0.2266957 -0.14887995 0.94509768
0.38988298 -0.13191746 1.1324406
0.24212669 -0.28748015 0.96420217
0.020711303 -0.13726239 0.62112194
0.10957133 -0.088176042 0.93802208
-0.17387938 -0.094118424 0.63851827
-0.22250666 0.066217259 0.72939819
-0.11496662 -0.065540336 0.71295756
0.29337531 -0.38181835 0.90087068
0.12498292 0.0053186286 0.91140604
-0.086459614 0.092652477 0.86883211
0.1489972 -0.17569517 0.92864496
-0.14685491 0.10696857 0.88046825
0.2340342 -0.38470688 1.079604
-0.032541353 0.1017638 0.83889151
-0.11509236 0.055523716 0.75400513
-0.063373961 0.12134184 0.84196097
-0.37493104 -0.10702584 0.81160122
-0.17018054 -0.066026241 0.7905305
-0.36239982 0.11753566 0.92948198
-0.26683292 0.017742326 0.69103223
-0.18751071 0.0016958016 0.8522194
-0.009582541 0.04941817 0.86933839
-0.10757662 -0.068229109 0.56813484
-0.11315542 -0.063231945 0.36945727
0.2049095 -0.22957753 0.74565929
-0.099987954 -0.06277521 0.54160386
-0.19942456 -0.0084409621 0.74395919
-0.22540356 0.12516199 0.75086439
-0.30210069 -0.11562383 0.64940351
-0.24646822 -0.048664715 0.70717472
-0.1990491 -0.0079596704 0.74341005
-0.16417664 0.062356237 0.7537607
-0.23771654 0.0451134 0.72677726
-0.049812347 0.013493994 0.8637169
0.0935819 -0.069921702 0.80021966
0.0077916584 0.066746287 0.80681854
-0.14824434 0.079517275 0.85580903
-0.22689931 -0.097293206 0.57773995
-0.086487338 0.093155175 0.8610006
-0.28379655 -0.009356902 0.69205087
-0.20284432 0.098997675 0.80000889
0.076583967 0.068695568 0.7741037
-0.21844435 0.066456594 0.7192328
-0.17426319 0.0054438896 0.78872973
0.072870515 -0.0882008 0.87541866
-0.041096777 -0.10271252 0.36898932
-0.2204593 0.12881482 0.75039554
-0.21429828 -0.025141869 0.68120766
0.090250567 -0.014405129 0.85898161
-0.065719999 -0.0050148182 0.87246311
0.0068605458 -0.068320006 0.94503182
0.088287003 -0.012937527 0.81357914
0.05622261 -0.043542586 0.92744154
-0.97224361 -0.23439701 1.7344073
-0.20871595 -0.0098388363 0.77820194
-0.18848376 0.099852569 0.78978628
-0.25479561 -0.038987946 0.62515664
-0.22255889 0.065393791 0.72957987
-0.18422483 -0.0019103612 0.67307228
-0.14160025 0.10109204 0.83047372
-0.13654257 0.048175916 0.75344789
0.033598363 -0.0062339823 0.82064366
-0.28497091 -0.086241215 0.65585554
-0.54855406 -0.1569616 1.1324941
-0.061935041 0.0011353611 0.82666707
0.019156788 0.08054547 0.87149614
-0.048428457 0.008915768 0.88112056
-0.18905847 0.09443336 0.73368442
0.028624376 -0.10289981 0.85003215
0.031479307 -0.006849674 0.79729831
-0.089045413 0.14244047 0.81889266
-0.034560289 0.060653538 0.6773355
-0.27650416 -0.097302422 0.7132467
0.031926982 -0.0075845965 0.80378038
0.12648344 -0.097424276 0.91076648
-0.10787705 -0.058601961 0.68239164
-0.1118623 -0.081956044 0.55717605
-0.10666601 -0.051893055 0.62106937
-0.29969952 0.011119379 0.78251934
0.030318754 -0.09265016 0.80519259
-0.13285652 -0.031038409 0.80802053
-0.30979881 0.010263478 0.81279767
-0.1594369 -0.091004573 0.4293004
-0.16001929 0.059722655 0.72677517
-0.19522834 0.094090775 0.76992059
-0.040892884 0.13544534 0.82606775
-0.3052038 -0.11829165 0.66173446
-0.13727045 -0.1131362 0.86583751
-0.23726888 0.12569405 0.80709201
-0.19493486 0.0055006361 0.78028876
-0.33609754 -0.051366955 0.72210073
0.019853126 0.077040359 0.79978901
-0.11203043 0.056278568 0.94431329
-0.11932705 0.045981675 0.60950392
-0.087121412 -0.0096645113 0.64973605
-0.29347414 0.043742556 0.69384456
-0.039524317 -0.094998479 0.35378155
-0.40649697 -0.1838333 0.79195976
-0.13475735 -0.097245723 0.50184357
-0.37149787 -0.0075219595 0.78331947
-0.3017714 -0.11721646 0.65214533
-0.094928391 0.059523515 0.60998267
-0.27368307 -0.09192735 0.65585178
-0.30536434 -0.041795019 0.65802473
-0.21614271 -0.026433473 0.69217253
-0.095734492 -0.11846434 0.41373438
-0.11480546 -0.080017827 0.55526024
-0.3813636 -0.077773914 0.84424037
-0.1741253 -0.10375804 0.46386483
-0.064311385 -0.13906062 0.37076128
-0.21077394 0.046015546 0.64576429
-0.13194075 -0.077686176 0.38289028
-0.044124894 -0.10124633 0.34193039
-0.1536351 -0.10062768 0.42389077
-0.20511924 -0.021556141 0.65724522
-0.32596123 -0.21561757 0.84088576
-0.087413877 -0.046615668 0.32971933
-0.039919499 -0.10616476 0.38449597
-0.070626453 -0.10410206 0.34518486
-0.12030382 -0.11868946 0.36278155
-0.05513018 -0.14006564 0.43931109
-0.085466459 -0.096592687 0.3619737
