# .PCD v0.7 - Point Cloud Data file format
VERSION 0.7
FIELDS x y z
SIZE 4 4 4
TYPE F F F
COUNT 1 1 1
WIDTH 317
HEIGHT 1
VIEWPOINT 0 0 0 1 0 0 0
POINTS 317
DATA ascii
-0.75949144 -0.39325637 -0.20239036
-0.92633861 -0.79069167 0.099090472
-0.49952513 -0.52023864 -0.22468829
-1.0754268 -0.83981764 0.11641622
-0.49141961 -0.54748392 0.067047931
-1.0005876 -0.85622096 0.044582859
-0.70878732 -0.37311241 -0.20996304
-0.78187513 -0.68542224 0.26574641
-1.9490865 -1.1722884 1.2146614
-0.6901527 -0.71485162 0.054397758
-0.70851177 -0.84425151 0.27517194
-0.54883373 -0.52931219 -0.12020182
-1.0783445 -0.95045871 0.040988073
-0.60641873 -0.68775553 -0.18672156
-0.74457461 -0.40715325 -0.20002152
-0.60714394 -0.49912998 -0.038609434
-0.6532855 -0.37162998 -0.20723784
-0.63036251 -0.69175243 0.11325387
-0.68701398 -0.7169193 0.29059383
-1.0492886 -0.8275466 0.10410656
-0.46292129 -0.5016849 -0.0037286112
-0.76391023 -0.63170904 0.32908958
-0.79700452 -0.68220133 0.36548048
-1.327803 -0.93849975 0.7112661
-0.86606169 -0.40223876 -0.17728351
-0.52985489 -0.54567707 -0.010512292
-1.17971 -0.72033942 0.27587143
-1.0273728 -0.86911362 0.28090185
-0.77206129 -0.4186559 0.034295488
-0.65700799 -0.77467453 0.13464661
-0.82151216 -0.65459329 -0.034302939
-0.98393714 -0.84515297 0.035438087
-0.57981068 -0.51644897 -0.14885555
-0.81426805 -0.51505667 -0.090644836
-0.55478495 -0.63208824 0.21283732
-1.0222207 -0.61906219 0.062301744
-0.81426805 -0.51505667 -0.090644836
-0.499165 -0.54621577 0.079491735
-0.67879421 -0.49917915 0.054206047
-0.41779009 -0.45489466 -0.19557786
-1.0795379 -0.68430388 0.1154779
-0.72500992 -0.60246283 0.3730796
-0.73550415 -0.37227276 -0.20959322
-0.62474817 -0.71531391 -0.18219486
-0.47138074 -0.38808542 -0.22049303
-0.57746869 -0.45743504 -0.10616265
-0.67971051 -0.40583628 -0.026800873
-0.5911116 -0.64673454 0.21129636
-0.76683855 -0.60247147 0.23920892
-0.60940409 -0.3935867 -0.20993899
-0.69657648 -0.60259777 -0.078275487
-0.742908 -0.66991192 -0.091570377
-0.71705163 -0.41027084 -0.26380152
-1.2360518 -0.87821895 0.24331315
-1.0754268 -0.83981764 0.11641622
-0.92908108 -0.78767604 0.02312794
-1.0440766 -0.86773342 0.056637153
-0.46724534 -0.38694304 -0.21857664
-0.45347798 -0.45342603 -0.22633648
-0.57512629 -0.63715953 -0.2024174
-0.74659234 -0.73125553 0.19366775
-0.41919199 -0.4762561 -0.19470415
-0.94642299 -0.85114837 0.015395356
-0.7750783 -0.8042084 0.12061442
-0.70507222 -0.7075358 0.022257593
-0.73223448 -0.38417423 -0.20937258
-0.58924562 -0.62474811 0.07584212
-0.72241676 -0.58580524 0.25541341
-0.76356834 -0.81854194 0.26990113
-0.62444079 -0.66161352 0.017618293
-0.58608603 -0.39017269 -0.20293131
-0.50922132 -0.41559091 -0.19609146
-0.55890107 -0.80366725 0.22425067
-0.79012614 -0.74057591 0.18950425
-0.61422551 -0.66242635 -0.20024265
-0.60714394 -0.49912998 -0.038609434
-0.74037421 -0.5932247 0.37985101
-0.73393852 -0.35370961 -0.16545404
-0.47090164 -0.53057539 0.060284704
-0.69814986 -0.63289088 0.28816128
-0.9527123 -0.80898118 0.13369067
-0.71018666 -0.4344742 -0.078037098
-0.41729501 -0.39687467 -0.22485605
-0.76873201 -0.93685728 0.67511386
-0.8689962 -0.60630399 -0.027938783
-0.74550396 -0.72950107 0.040610019
-1.1437552 -0.67149329 0.11695503
-0.7045173 -0.79380399 0.14310111
-0.74376476 -1.2169174 0.6843248
-0.97896832 -0.84274024 0.12631685
-0.590029 -0.76826882 0.20968279
-0.80990028 -0.63571161 -0.046747182
-0.64564109 -0.36970279 -0.21430019
-0.69231468 -0.63048053 0.28150636
-0.56148934 -0.48635572 0.030255757
-0.99892485 -0.55316246 0.036908384
-1.0196249 -0.83556008 0.12168565
-0.85831118 -0.72987342 0.11032099
-0.68938303 -0.69539899 0.12736574
-0.68279505 -0.73582315 0.064878196
-0.65857339 -0.64465469 -0.019951757
-1.2658504 -0.85429001 0.8385064
-0.42826462 -0.45532644 -0.067896999
-0.45453539 -0.43926802 -0.22112453
-1.3062153 -0.90268058 0.14324978
-1.0128319 -0.57393497 0.021909647
-0.39214158 -0.41415435 -0.21170117
-0.68635541 -0.68634969 0.064426422
-0.68869835 -0.72179049 0.014119726
-0.69503725 -0.69358695 0.10818277
-0.93934906 -0.610771 0.069250301
-0.7611928 -0.76376462 0.02229321
-0.86155111 -0.63858849 -0.039774783
-0.85172021 -0.61642218 -0.015739892
-0.73961318 -0.71137428 0.13566922
-0.85285664 -0.7443918 0.35095879
-1.1153028 -0.74163914 0.23892651
-1.1064992 -0.64839858 0.096763447
-0.60785949 -0.79625183 0.2490125
-0.72789288 -0.8434335 0.21245016
-0.61653084 -0.37171766 -0.22507034
-0.52479869 -0.59604508 0.1622999
-0.70257801 -0.53557158 0.12753299
-0.60990512 -0.67782766 0.27586356
-0.69975406 -0.54250813 0.14577432
-0.51558262 -0.52674097 -0.22362116
-0.44720805 -0.63436055 -0.086542845
-0.83738256 -0.66690582 -0.024350254
-0.72207224 -0.70478702 -0.0080179349
-0.53329808 -0.6110068 0.18459062
-0.47002307 -0.45359024 -0.22373272
-0.70206267 -0.74802446 0.10748168
-0.769247 -0.53849882 -0.084433295
-0.7094487 -0.40817052 -0.26346731
-0.68813354 -0.69885314 0.10928704
-0.86136872 -0.70560288 -0.011056721
-0.70856029 -0.40797505 -0.26323226
-0.71955037 -0.41078016 -0.2637727
-1.050576 -0.82920665 0.088548496
-1.033286 -0.89434296 0.025609717
-0.86630887 -0.6150825 -0.0092288479
-0.90650856 -0.59594685 -0.080152012
-0.66526484 -0.65394908 -0.0034767361
-0.66596907 -0.60335004 -0.20107962
-0.58622944 -0.62333655 0.074731283
-0.54417902 -0.59480107 -0.01214533
-0.61796057 -0.6979928 -0.19528091
-0.56827438 -0.50949442 -0.14227596
-0.56732386 -0.50826353 -0.14273223
-0.92110467 -0.45689747 -0.16096255
-0.57888818 -0.45949379 -0.10481837
-0.56536055 -0.50553566 -0.14534727
-0.55963105 -0.37369391 -0.21535718
-0.70252872 -0.42012706 -0.1844942
-1.1941912 -0.49732062 -0.13045761
-0.81707186 -0.6001724 -0.028071601
-0.84726036 -0.69306624 -0.0017173643
-0.59486473 -0.62521338 -0.16735598
-0.5033921 -0.54375172 -0.16470128
-0.4995583 -0.53708804 -0.1677095
-0.61501664 -0.72913241 0.099222481
-0.43489373 -0.37609661 -0.22247498
-0.44818586 -0.38786507 -0.21052496
-0.69278431 -0.40791467 -0.018045697
-0.57310414 -0.6934703 0.18731327
-0.5173943 -0.60790288 -0.16825706
-0.59265423 -0.67532027 -0.11830531
-0.61244392 -0.47734892 -0.094942749
-0.57460511 -0.64847648 -0.1278542
-0.63710523 -0.39772922 -0.055853903
-0.59591091 -0.44792649 -0.087704629
-0.51503158 -0.41945067 -0.19068421
-0.49374795 -0.52292067 -0.21884391
-0.50063485 -0.5327484 -0.21798569
-0.64825588 -0.52968109 -0.11368661
-0.78236091 -0.41578293 -0.19526571
-0.76068348 -0.38897184 -0.20722486
-0.54375339 -0.41628233 -0.1956954
-0.58982164 -0.39078465 -0.20185937
-0.60908383 -0.66992337 0.24824488
-0.57424176 -0.465083 -0.094364189
-0.52311295 -0.42763808 -0.18308716
-0.41922793 -0.4763357 -0.19470258
-0.41838187 -0.47352019 -0.19563557
-1.3760443 -0.59457856 -0.03672405
-0.41874442 -0.47490031 -0.19507046
-0.7766332 -0.66274226 0.42448872
-0.58589035 -0.670102 0.4066714
-0.57750571 -0.65128922 0.38070104
-0.70842493 -0.60432732 0.38676479
-0.64671689 -0.55650932 0.23499177
-0.6154775 -0.77415812 0.25118127
-0.72462386 -0.63942617 0.31377694
-0.71741152 -0.64906865 0.2815333
-0.6088497 -0.66939598 0.34271607
-0.75685817 -0.62065595 0.36023962
-0.75369525 -0.58861005 0.37406766
-0.58166766 -0.63823473 0.3561402
-0.68828297 -0.53944927 0.30350122
-0.63104993 -0.64015377 0.31932387
-0.69308126 -0.59997714 0.25154376
-0.55963862 -0.62821823 0.35230184
-0.57876873 -0.65329695 0.38306132
-0.77050519 -0.59398752 0.37759984
-0.66697657 -0.54552698 0.20554106
-0.67206115 -0.77443814 0.20980968
-0.69580764 -0.72283453 0.26908723
-0.70659184 -0.62579662 0.29697675
-0.5789907 -0.75068325 0.31475836
-0.72303069 -0.52986276 0.074631482
-0.68702084 -0.50022614 0.05931231
-0.74829811 -0.63875562 0.40557075
-0.72230405 -0.72012442 0.30495149
-0.66680145 -0.70962584 0.25647286
-0.7025345 -0.76855332 0.14848959
-0.6999051 -0.58582383 0.40935352
-0.78880161 -0.69171828 0.27506572
-0.57932025 -0.73471564 0.24117865
-0.57115358 -0.64604616 0.22277102
-0.70697796 -0.68691802 0.22662182
-0.64603251 -0.64685357 0.32151806
-0.75704598 -0.78928727 0.30251616
-0.73945987 -0.57435262 0.34326482
-0.73764443 -1.5278553 0.38677043
-0.57437271 -0.68629664 0.27650335
-0.67285705 -0.53010035 0.31293148
-0.87972265 -0.77386296 0.500857
-0.65651089 -0.75067931 0.19458233
-0.75879306 -0.53294575 0.10142018
-0.74854964 -0.72438371 0.23943348
-0.58015192 -0.73813039 0.24562073
-0.63287038 -0.77458417 0.24817407
-0.624147 -0.75940436 0.19249423
-0.75042874 -0.62148732 0.25049797
-0.78896677 -0.81342155 0.1322532
-0.6751017 -0.80174768 0.14009567
-0.66362208 -0.57046288 0.26425013
-0.95224708 -0.72036558 0.23444478
-0.56053585 -0.60463291 0.36265022
-0.57993162 -0.63436782 0.35434812
-0.73938638 -0.57076913 0.19469488
-0.88901693 -0.75269371 0.20238683
-0.87998754 -1.4355927 0.23313613
-1.0063618 -0.85270184 0.26780367
-0.79759324 -0.62916517 0.25719777
-0.59412003 -0.65035671 0.21483733
-1.0631618 -0.75443029 0.34792334
-1.242111 -0.92969471 0.38373765
-0.61653906 -0.87706184 0.17872143
-0.64407319 -0.82250512 0.22528127
-1.5017735 -1.6169137 1.0419121
-0.65737796 -0.71413726 0.18757969
-0.6297214 -0.52655876 0.22646385
-0.64746058 -0.7825948 0.42119887
-0.64027399 -0.6572597 0.25831908
-0.60754126 -0.54300696 0.29232496
-1.0699433 -0.76976496 0.12832598
-0.92140478 -0.7441172 0.048703585
-0.78080124 -1.2517786 0.17108743
-1.0637107 -0.76630068 0.12493935
-0.60039562 -0.85265917 0.26728714
-0.67093354 -0.68057376 0.27051252
-0.62329584 -0.53952163 0.25734782
-0.67764056 -0.59594601 0.3097738
-0.6113025 -0.74252886 0.12442308
-0.64522898 -0.69056731 0.062094469
-0.64120573 -0.68816197 0.25642279
-0.66296941 -0.63587058 0.29718223
-0.89165193 -0.87172383 0.1411203
-0.53298724 -0.53179729 -0.088408865
-0.68233311 -0.52239239 -0.092261642
-0.7833063 -0.52327687 0.04729563
-0.61584061 -0.87761408 0.17738473
-0.60631585 -0.5413087 0.29008916
-0.94803947 -0.79410541 0.27201158
-0.7567789 -0.55026454 0.2794401
-0.75668609 -0.54810691 0.25581306
-0.99363977 -0.84413821 0.25780165
-0.94271827 -0.72471142 0.48824093
-0.98192745 -0.73921293 0.25416636
-0.55079633 -0.75555444 0.21516316
-0.98475224 -0.84747583 0.12969823
-0.67424476 -0.53973579 0.22988628
-0.65762222 -0.78571588 0.18217342
-0.76364464 -0.56781965 0.15365233
-0.55644494 -0.65717888 0.24840586
-0.70003498 -0.76385397 0.23348969
-0.7534011 -1.5374967 0.36219132
-0.69197547 -0.7964921 0.1714939
-0.67193371 -0.60496229 0.26163501
-0.98828673 -0.8374688 0.15595101
-0.71927363 -0.57562202 0.18749373
-0.78789926 -0.66755229 0.35932419
-1.0785071 -0.90674436 0.041260034
-0.75107682 -0.77967727 0.15252998
-0.66298443 -0.59982699 0.2523725
-0.70232505 -0.56007075 0.2253072
-0.99770057 -0.72510868 0.093492545
-0.68276417 -1.4498428 0.36013815
-0.9580428 -1.5798501 0.28976426
-0.69414645 -0.55229837 0.21642295
-0.60271454 -0.71219277 0.092693865
-0.73350215 -0.7087006 0.24766704
-0.81553155 -1.7117237 0.46453115
-0.61271185 -0.8284139 0.22478969
-1.0423123 -0.91048068 0.041242518
-0.41686258 -0.39584288 -0.2248611
-0.68680292 -0.88258284 0.17681134
-0.74584532 -1.6388249 0.45540953
-0.67349857 -0.79832113 0.15500796
-0.66981405 -0.53980082 0.1990118
-0.62734354 -0.62529606 0.2903294
-1.0474142 -0.76823944 0.14362425
-0.72861826 -0.68909651 0.010824925
-0.77078366 -0.65155345 0.4507969
-0.61706769 -0.37193009 -0.22510427
-0.51599288 -0.57049757 0.12001077
