# .PCD v0.7 - Point Cloud Data file format
VERSION 0.7
FIELDS x y z normal_x normal_y normal_z curvature
SIZE 4 4 4 4 4 4 4
TYPE F F F F F F F
COUNT 1 1 1 1 1 1 1
WIDTH 97
HEIGHT 1
VIEWPOINT 0 0 0 1 0 0 0
POINTS 97
DATA ascii
-0.16807023 -0.35528654 0.68452448 0.89559048 -0.075748824 -0.43838313 0.11610783
-0.25021115 -0.46698937 0.52725834 0.84842521 0.077480726 -0.52361381 0.11610783
-0.21716465 -0.81906295 0.48860094 0.70909965 0.052780844 -0.70313007 0.11610783
-0.28537458 -0.31056452 0.44563133 0.82464433 -0.27487904 -0.49437159 0.11610783
-0.86075544 -1.2454776 0.86017543 -0.21654597 -0.89200073 -0.3967903 0.11610783
-0.45480356 -0.56812376 0.30679211 0.50963205 -0.078772329 -0.85677892 0.11610783
0.0010848281 -0.89250523 0.78680784 0.87196696 0.14659759 -0.46710041 0.11610783
-0.39951169 -0.30298817 0.28528032 0.66694343 -0.41087401 -0.62158591 0.11610783
-0.22673491 -0.30736548 0.55031961 0.86452699 -0.23499706 -0.44426286 0.11610783
-0.2186648 -0.4019118 0.58815473 0.88192987 0.0015407554 -0.47137815 0.11610783
-0.20328155 -0.36232993 0.61479747 0.88939697 -0.073033631 -0.4512639 0.11610783
-0.48202476 -0.42873606 0.26708964 0.54088241 -0.21800612 -0.81235433 0.11610783
-0.65424931 -0.81639791 0.32179385 -0.037209056 -0.42057416 -0.9064948 0.11610783
-0.0087134922 -0.73980671 0.84344399 0.86143315 0.2667543 -0.43217477 0.11610783
-0.33996156 -0.3525368 0.38269886 0.78196514 -0.21691263 -0.58436239 0.11610783
-0.26201344 -0.48243621 0.50630146 0.83438855 0.084689282 -0.54463154 0.11610783
0.023002373 -0.89501441 0.82770503 0.87837642 0.15067118 -0.45360014 0.11610783
-0.24614438 -1.1698871 0.64391631 0.27309513 -0.7704435 -0.57605201 0.11610783
-0.24117307 -0.35985494 0.54208559 0.87309241 -0.10388481 -0.47635868 0.11610783
0.072098821 -0.98956555 0.90738887 0.8943119 -0.0043297377 -0.44742307 0.11610783
-0.18711665 -0.94185209 0.52332246 0.6640355 -0.14470908 -0.73356402 0.11610783
0.16452754 -0.73567724 1.1620374 0.81279463 0.20140848 -0.54662555 0.11610783
-0.37504417 -0.51998764 0.36504784 0.68481386 -0.0024946604 -0.72871375 0.11610783
-0.33736891 -0.53784049 0.40217751 0.72843897 0.051247358 -0.68319136 0.11610783
0.11755095 -0.81699646 1.0481092 0.86148632 0.2121868 -0.46132213 0.11610783
0.10480297 -0.9569369 0.97586071 0.89574629 0.060648989 -0.44040921 0.11610783
-0.27254784 -0.41000926 0.49426687 0.84917998 -0.026050974 -0.52746063 0.11610783
-0.16304986 -0.33889922 0.69121015 0.89295065 -0.11659897 -0.43479171 0.11610783
0.14643565 -0.55012041 1.1896516 0.7503652 0.085881524 -0.65542078 0.11610783
-0.4444806 -0.48809513 0.30508158 0.58505195 -0.10804585 -0.80376631 0.11610783
-0.26727003 -0.23596099 0.41392148 0.7553153 -0.50186932 -0.42145693 0.11610783
-0.59491354 -0.62831229 0.26307839 0.19531885 -0.23183288 -0.95294493 0.11610783
-0.40270442 -0.58252364 0.34227517 0.59475332 -0.013784292 -0.80379009 0.11610783
-0.19605398 -0.87094557 0.50786781 0.70535612 -0.0050341506 -0.70883524 0.11610783
-0.41544598 -0.54642683 0.33167055 0.59936166 -0.037310272 -0.79960835 0.11610783
-0.45946598 -0.53274703 0.30036733 0.52763385 -0.095088087 -0.84413314 0.11610783
-0.54100609 -0.75854927 0.30721524 0.17148432 -0.27534235 -0.94592798 0.11610783
0.11105707 -1.1280669 1.0491971 0.82531381 -0.40533218 -0.39314497 0.11610783
0.13249505 -0.74212569 1.1090717 0.83396488 0.22470896 -0.50399256 0.11610783
-0.29618862 -0.53932595 0.44964379 0.77720475 0.096542269 -0.62179774 0.11610783
-0.35152689 -0.42285115 0.3849417 0.7636416 -0.085121937 -0.64000446 0.11610783
-0.39802787 -0.49044403 0.34290338 0.6655311 -0.052228853 -0.74454045 0.11610783
-0.41412938 -0.48247823 0.32822922 0.64271748 -0.078448065 -0.7620762 0.11610783
0.10357707 -1.029996 0.97574723 0.89428896 -0.099575534 -0.43627056 0.11610783
-0.36924902 -0.64640963 0.36692581 0.60148185 0.017614614 -0.79869223 0.11610783
-0.40238193 -0.41962165 0.32951131 0.6885286 -0.14740729 -0.71007007 0.11610783
-0.22883469 -0.43108791 0.56810635 0.87149572 0.044695441 -0.48836207 0.11610783
-0.0046307081 -0.31190437 0.97245783 0.79387003 -0.27607048 -0.54180759 0.11610783
-0.022092316 -0.41087908 0.96788502 0.86013484 0.010225893 -0.50996423 0.11610783
-0.27304098 -0.20009072 0.35359704 0.67462629 -0.62780905 -0.38824627 0.11610783
0.16416709 -0.77649343 1.1461093 0.82850528 0.19944517 -0.52325958 0.11610783
0.22331588 -1.284849 1.6245869 0.34727702 -0.90462959 -0.24707091 0.11610783
-0.095445238 -0.76762807 0.66568965 0.83857274 0.22516823 -0.49607962 0.11610783
0.18869829 -0.56580228 1.2331742 0.70403236 0.054961562 -0.70803791 0.11610783
-0.18337087 -0.38227037 0.65638387 0.8944155 -0.018999428 -0.44683319 0.11610783
-0.27566627 -0.50390929 0.48271883 0.81432998 0.092515133 -0.5729813 0.11610783
-0.21265911 -0.36515638 0.59691393 0.88642091 -0.071769431 -0.45728233 0.11610783
-0.089565188 -0.89993238 0.63470656 0.81800222 0.070211709 -0.57091385 0.11610783
-0.35369989 -0.39163122 0.3766928 0.76645064 -0.1444473 -0.62585014 0.11610783
-0.46691293 -0.43084267 0.27805886 0.56935269 -0.1996614 -0.79747903 0.11610783
-0.48202476 -0.42873606 0.26708964 0.54088241 -0.21800612 -0.81235433 0.11610783
-0.53183627 -0.47821862 0.25106066 0.42123792 -0.20839889 -0.88268256 0.11610783
-0.3333579 -0.42804667 0.40792972 0.78515303 -0.056803491 -0.61669123 0.11610783
-0.5531376 -0.60818529 0.2692267 0.28667179 -0.18780509 -0.93944055 0.11610783
-1.1382276 -0.88618535 0.51181078 -0.34636483 -0.61836517 -0.70544738 0.11610783
-0.25684285 -0.99024111 0.4877013 0.4707875 -0.36675796 -0.80240124 0.11610783
-0.49523059 -0.52504754 0.27869302 0.46373278 -0.13881874 -0.87503213 0.11610783
-0.46073133 -0.63291091 0.30970213 0.44240984 -0.092738956 -0.89200509 0.11610783
-0.60698324 -0.58045465 0.24884123 0.21204576 -0.23362474 -0.94892365 0.11610783
-0.52570617 -0.5602529 0.27016863 0.37794325 -0.15932454 -0.91201675 0.11610783
-0.33961773 -0.4089382 0.39760721 0.78220314 -0.096026145 -0.61557877 0.11610783
-0.30988589 -0.26041901 0.36863357 0.74790251 -0.45698735 -0.48146072 0.11610783
-0.069982938 -0.3701686 0.88143712 0.87887943 -0.052968979 -0.47409409 0.11610783
0.16452754 -0.73567724 1.1620374 0.81279463 0.20140848 -0.54662555 0.11610783
-0.51938635 -0.44240183 0.24830282 0.46262643 -0.23512855 -0.85480487 0.11610783
-0.11125313 -1.3275908 1.1536436 0.2965534 -0.93731678 -0.1830119 0.11610783
-0.44718564 -0.50884199 0.30574402 0.56725496 -0.094690993 -0.81808037 0.11610783
-0.34643012 -0.37658265 0.3819837 0.77656138 -0.16798785 -0.60723346 0.11610783
-0.32169995 -1.0234907 0.47536585 0.29499182 -0.51750743 -0.80322218 0.11610783
-0.45439523 -0.58222955 0.30830601 0.49893928 -0.076902911 -0.86321813 0.11610783
-0.23973045 -0.59042609 0.51318324 0.80425954 0.16821441 -0.56997412 0.11610783
-0.53200048 -0.64067006 0.28209102 0.29777408 -0.17637084 -0.9382025 0.11610783
-0.48722905 -0.69296765 0.30653512 0.33355638 -0.15826124 -0.92935115 0.11610783
-0.30325973 -0.46845442 0.44823864 0.80383265 0.030247262 -0.59408599 0.11610783
-0.522322 -0.6065433 0.27937764 0.34630957 -0.15593493 -0.92506969 0.11610783
-0.16446647 -1.2666163 0.87354577 0.30290291 -0.88742435 -0.34745911 0.11610783
-0.21131814 -0.55739456 0.56698233 0.83740133 0.17994858 -0.51611769 0.11610783
-0.27038416 -0.97569132 0.47349918 0.45990527 -0.34795415 -0.81695473 0.11610783
-0.23978524 -0.82343072 0.46672481 0.67222297 0.016001889 -0.74017578 0.11610783
0.35593399 -0.79070604 1.3651018 0.61128497 -0.0042780051 -0.791399 0.11610783
0.081847772 -0.8764379 0.9520337 0.88146138 0.17631282 -0.43810916 0.11610783
-0.19569281 -0.37007061 0.63087219 0.89181793 -0.051273208 -0.44947955 0.11610783
-0.45861986 -0.52533942 0.30005291 0.53450847 -0.09777832 -0.83948797 0.11610783
-0.32459125 -0.33659956 0.39759678 0.79606879 -0.24140225 -0.55497694 0.11610783
-0.60636765 -0.53371638 0.23733245 0.24618395 -0.24013905 -0.93900305 0.11610783
-0.56431514 -0.67077118 0.279751 0.21202898 -0.22377479 -0.95129836 0.11610783
-0.5256933 -0.55135441 0.26860806 0.38482779 -0.16120517 -0.90880167 0.11610783
