# .PCD v0.7 - Point Cloud Data file format
VERSION 0.7
FIELDS x y z normal_x normal_y normal_z curvature
SIZE 4 4 4 4 4 4 4
TYPE F F F F F F F
COUNT 1 1 1 1 1 1 1
WIDTH 168
HEIGHT 1
VIEWPOINT 0 0 0 1 0 0 0
POINTS 168
DATA ascii
-1.0042248 -1.3223624 0.47017533 0.87680084 -0.25061813 -0.4103789 0.18635853
-1.1365261 -1.559455 0.34366545 0.82341152 -0.2397783 -0.51429546 0.18635853
-0.94021267 -1.245921 0.56348199 0.88432121 -0.30105507 -0.35684988 0.18635853
-1.116132 -0.75801313 0.15769927 0.34098649 -0.28308272 -0.89643317 0.18635853
-1.2050583 -1.0930331 0.18125232 0.5068903 -0.10312867 -0.85581934 0.18635853
-0.89667368 -0.97428685 0.43664587 0.7575382 -0.40072849 -0.51531792 0.18635853
-0.89558679 -1.1435261 0.57992941 0.85932535 -0.3465063 -0.37615603 0.18635853
-1.2045726 -0.95622391 0.16341121 0.42808303 -0.13192157 -0.89405906 0.18635853
-0.78098553 -0.76228911 0.37175119 0.52531451 -0.6564523 -0.54140103 0.18635853
-0.79770702 -1.1931512 0.86957282 0.80817217 -0.44341162 -0.38761309 0.18635853
-0.94759965 -1.1953677 0.50742412 0.86388677 -0.29261404 -0.40997154 0.18635853
-1.3464901 -1.0673271 0.11369028 0.33622757 -0.036852885 -0.94105947 0.18635853
-1.2258803 -0.97093517 0.15542851 0.41468063 -0.1140653 -0.90278959 0.18635853
-1.3880924 -1.1478636 0.10149159 0.32039231 -0.018829133 -0.94709778 0.18635853
-1.58266 -1.92026 1.8706747 -0.20503806 -0.97124779 -0.12098408 0.18635853
-0.88412356 -0.91359591 0.40572977 0.70552313 -0.44651666 -0.55032718 0.18635853
-1.1348444 -1.7937253 0.76414055 0.80548477 -0.59229487 -0.019521866 0.18635853
-1.0254799 -1.587069 0.69487917 0.90069324 -0.40026051 -0.16894749 0.18635853
-0.52293634 -0.80262882 0.73689055 0.39541578 -0.80697083 -0.43868491 0.18635853
-0.25520629 -1.1414328 1.16596 0.00027258327 -0.50206405 -0.86483037 0.18635853
-0.80008346 -1.2990819 0.98218501 0.77504659 -0.46195769 -0.43115881 0.18635853
-0.80639404 -0.92924863 0.5370971 0.73945099 -0.51187629 -0.43725836 0.18635853
-0.97606307 -0.93695545 0.31697422 0.66064477 -0.3396447 -0.66946995 0.18635853
-1.2183424 -1.2595166 0.19131777 0.56708562 -0.090062737 -0.8187201 0.18635853
-1.2385657 -1.7504053 0.29550186 0.74781537 -0.35063323 -0.56376284 0.18635853
-0.56014055 -0.819682 0.73161 0.45476371 -0.77643406 -0.43627989 0.18635853
-0.75650632 -0.88618994 0.56518906 0.69014823 -0.58594954 -0.42468646 0.18635853
-0.94734484 -1.1067396 0.44880551 0.8204304 -0.30492964 -0.48364434 0.18635853
-1.0255587 -1.043488 0.31299838 0.70197809 -0.25073287 -0.66660315 0.18635853
-0.95933014 -1.0322199 0.38669506 0.76084334 -0.31586778 -0.56687295 0.18635853
-0.81682479 -1.1103166 0.72960263 0.82801062 -0.4285458 -0.36158937 0.18635853
-1.1527992 -1.1132071 0.21861376 0.58625877 -0.13394199 -0.79897445 0.18635853
-1.066304 -1.2232689 0.32635689 0.76570541 -0.18914306 -0.61475211 0.18635853
-1.3146695 -1.093375 0.12704596 0.37858123 -0.047417071 -0.92435271 0.18635853
-0.86840808 -0.81031549 0.33711234 0.58034688 -0.52982086 -0.61845565 0.18635853
-0.93414813 -1.1515863 0.5035587 0.85147351 -0.30891281 -0.42375195 0.18635853
-0.84676313 -0.72068709 0.27445665 0.43679422 -0.61174613 -0.65952826 0.18635853
-1.0751927 -1.0738856 0.27393714 0.6636796 -0.19977894 -0.72084516 0.18635853
-1.0956037 -1.0762004 0.25642678 0.63899797 -0.18269323 -0.74719793 0.18635853
-1.0290444 -1.0458841 0.31023556 0.6997726 -0.24688825 -0.67034656 0.18635853
-0.96965933 -1.3109416 0.54291773 0.89281332 -0.28183883 -0.35135624 0.18635853
-0.81605315 -1.0166656 0.62107134 0.79850447 -0.45665464 -0.39224628 0.18635853
-0.80259383 -1.1932801 0.85939634 0.81407052 -0.43890625 -0.38032949 0.18635853
-1.6660931 -1.7889601 0.090533227 0.10890212 -0.27477643 -0.95532101 0.18635853
-0.67246604 -0.90992945 0.73645484 0.6404081 -0.63842505 -0.42695546 0.18635853
-0.70918131 -0.8713792 0.61977661 0.65183067 -0.63695836 -0.4115833 0.18635853
-0.97331399 -1.4981868 0.76055062 0.89895952 -0.38923907 -0.20090988 0.18635853
-1.2190102 -1.1511185 0.17939329 0.51775295 -0.089359388 -0.85085064 0.18635853
-1.2515944 -1.1253536 0.15852143 0.46444675 -0.07397446 -0.88250607 0.18635853
-1.2735752 -1.0355787 0.14066398 0.39814511 -0.07358326 -0.91436642 0.18635853
-1.8559109 -1.3789684 0.031402417 -0.0053161271 -0.022455832 -0.99973369 0.18635853
-0.94306314 -1.2432665 0.55427897 0.8827312 -0.29797578 -0.36331257 0.18635853
-1.1647149 -1.8273948 1.2586062 0.46336833 -0.88159376 -0.089901231 0.18635853
-1.0258613 -1.5201228 0.57829201 0.91065395 -0.32359943 -0.25689065 0.18635853
-1.0634217 -1.6356417 0.6099385 0.89998102 -0.39356479 -0.18745908 0.18635853
-1.1037602 -1.6554997 0.48657259 0.88860476 -0.35694981 -0.28804249 0.18635853
-1.183503 -1.030277 0.18549123 0.49811262 -0.12782498 -0.85763896 0.18635853
-0.90481061 -1.0816754 0.50748134 0.82883102 -0.3506763 -0.43596482 0.18635853
-0.91063011 -1.4361659 0.89303148 0.86285311 -0.42977342 -0.26604381 0.18635853
-0.89040285 -1.2844715 0.74343419 0.88310838 -0.36358202 -0.29652599 0.18635853
-1.4938866 -0.72916508 0.068432212 0.10778343 -0.043346163 -0.99322897 0.18635853
-0.67233878 -0.77336413 0.50963748 0.51964486 -0.74318945 -0.42147201 0.18635853
-1.0983584 -1.6031846 0.44728041 0.88335443 -0.30846921 -0.35289058 0.18635853
-0.9581095 -1.0345278 0.38963342 0.76365525 -0.31619623 -0.56289488 0.18635853
-0.99949342 -1.0416697 0.34112889 0.72937155 -0.2751177 -0.62636042 0.18635853
-1.0673125 -1.0707012 0.28037792 0.67144507 -0.20708002 -0.71153313 0.18635853
-1.0956805 -1.085186 0.25855291 0.64486969 -0.18079278 -0.74260151 0.18635853
-0.51271486 -0.76154822 0.66488004 0.35780877 -0.84464163 -0.39818761 0.18635853
-0.82250345 -0.92077649 0.50107062 0.73197806 -0.50224578 -0.46038818 0.18635853
-0.85631639 -1.0872283 0.6132127 0.83761519 -0.39493164 -0.37739876 0.18635853
-0.95283526 -1.6115781 1.0965232 0.73782188 -0.61004758 -0.28889582 0.18635853
-0.97640991 -1.1184174 0.40866664 0.80458724 -0.27602658 -0.52578384 0.18635853
-1.0202167 -1.1614288 0.36491263 0.78650719 -0.23075843 -0.57284993 0.18635853
-1.0559449 -1.1391054 0.31263953 0.73075002 -0.20364875 -0.65156084 0.18635853
-0.8565985 -0.94080508 0.46814224 0.74424094 -0.45755702 -0.48656654 0.18635853
-1.0129718 -1.0863305 0.34397116 0.74720031 -0.25046605 -0.615596 0.18635853
-1.0541993 -1.0676514 0.29211342 0.68562722 -0.21894719 -0.69424599 0.18635853
-0.92768663 -0.99130851 0.40480399 0.7528038 -0.36261225 -0.54936218 0.18635853
-1.0625982 -1.67878 0.74975324 0.86946857 -0.48342514 -0.10160947 0.18635853
-1.6574659 -1.8437456 0.10945479 0.11876521 -0.34360632 -0.93157369 0.18635853
-1.0448968 -0.94049978 0.25797424 0.5927791 -0.26948807 -0.75893945 0.18635853
-0.9426378 -0.9332633 0.34981707 0.6865716 -0.3757295 -0.6224522 0.18635853
-1.1301907 -0.8160966 0.16902116 0.38892317 -0.24255891 -0.88876539 0.18635853
-1.949097 -1.4536742 0.037514698 -0.060514797 -0.060734157 -0.99631786 0.18635853
-1.5398453 -1.9675118 0.20264797 0.29625371 -0.5840832 -0.75569874 0.18635853
-1.5966369 -1.7909995 0.10180224 0.18469149 -0.27988833 -0.94209957 0.18635853
-1.0173028 -1.5608643 0.67893022 0.90559316 -0.38057142 -0.18726029 0.18635853
-1.6775085 -1.8135996 0.096783325 0.097332358 -0.30392194 -0.94771188 0.18635853
-0.8115468 -0.94786692 0.5498572 0.75493801 -0.49578726 -0.42925933 0.18635853
-1.4285773 -0.66743201 0.071380384 0.10597141 -0.091946334 -0.99010903 0.18635853
-1.6143579 -1.7736338 0.093611442 0.16330956 -0.25900456 -0.95196986 0.18635853
-0.73629558 -0.91440189 0.63900137 0.70202446 -0.58397257 -0.40759993 0.18635853
-0.58025813 -0.80455434 0.68191546 0.47178993 -0.77837813 -0.41417596 0.18635853
-1.3919346 -0.9883554 0.09662585 0.2673929 -0.028870804 -0.96315497 0.18635853
-1.2912514 -1.0807155 0.13621382 0.39897025 -0.05895659 -0.9150666 0.18635853
-1.3848053 -1.0139648 0.099423617 0.28225806 -0.028171377 -0.95892477 0.18635853
-0.77136123 -0.74948347 0.36513421 0.50294089 -0.67508286 -0.53973478 0.18635853
-1.5237488 -0.59946537 0.058935061 0.042238045 -0.068827964 -0.99673402 0.18635853
-1.0303342 -0.8362366 0.22813205 0.49825117 -0.33268809 -0.80066496 0.18635853
-0.95737034 -1.0321395 0.38929078 0.76246262 -0.31774622 -0.56363821 0.18635853
-1.2573925 -1.126367 0.1555813 0.45778629 -0.07099285 -0.88622332 0.18635853
-1.1469749 -1.6762521 0.39697003 0.85344005 -0.33422595 -0.39991638 0.18635853
-1.1354059 -1.0865237 0.22675775 0.59348315 -0.15036424 -0.79067588 0.18635853
-1.1913841 -1.1403856 0.19569187 0.54920238 -0.10610591 -0.82892597 0.18635853
-1.1047981 -1.2013814 0.27729344 0.70209831 -0.16025494 -0.69381291 0.18635853
-1.0776075 -1.0694492 0.27051151 0.65753895 -0.19878915 -0.72672236 0.18635853
-0.69899774 -0.8828038 0.65366799 0.65257055 -0.63682723 -0.41061264 0.18635853
-0.93770903 -1.2449837 0.56891632 0.88467479 -0.30347943 -0.35390785 0.18635853
-1.559172 -1.0680152 0.059931219 0.16299289 0.020063369 -0.98642325 0.18635853
-0.74413896 -1.4150943 1.1647381 0.57836062 -0.51928061 -0.62916338 0.18635853
-0.7755456 -0.91637993 0.57384247 0.72264123 -0.54822785 -0.42099398 0.18635853
-1.0393809 -0.75703168 0.18972251 0.39378309 -0.36406928 -0.8440311 0.18635853
-1.4331166 -0.65337825 0.069593273 0.096929386 -0.094428726 -0.99080163 0.18635853
-1.1831129 -0.82293588 0.14898786 0.35084066 -0.19383429 -0.9161545 0.18635853
-2.0260444 -1.9022558 0.15398353 -0.18050328 -0.46903002 -0.86453998 0.18635853
-0.86484081 -0.9221006 0.43888497 0.72327769 -0.46065599 -0.51445645 0.18635853
-0.89598221 -0.99073541 0.45055518 0.77161515 -0.39343086 -0.49982223 0.18635853
-0.8240276 -1.108482 0.7108565 0.83222491 -0.4218066 -0.35983446 0.18635853
-1.2293607 -1.7169425 0.28809258 0.74793291 -0.31567994 -0.5839029 0.18635853
-1.063058 -1.0798112 0.28714374 0.68311667 -0.20857295 -0.6998921 0.18635853
-1.3712887 -1.1205753 0.10664221 0.32924005 -0.024592672 -0.94392592 0.18635853
-1.2061634 -1.2339206 0.19692555 0.57335973 -0.095196143 -0.8137545 0.18635853
-1.3880924 -1.1478636 0.10149159 0.32039231 -0.018829133 -0.94709778 0.18635853
-0.93215936 -1.0385944 0.42945629 0.78668523 -0.3391712 -0.51583838 0.18635853
-1.3555027 -1.7023144 0.16949382 0.5150522 -0.23547585 -0.82417983 0.18635853
-1.0559449 -1.1391054 0.31263953 0.73075002 -0.20364875 -0.65156084 0.18635853
-0.75885266 -1.0605502 0.7916224 0.77126437 -0.49369347 -0.40176862 0.18635853
-0.89114481 -1.0705184 0.52446187 0.82715732 -0.36672333 -0.42582244 0.18635853
-1.0297711 -1.0293522 0.3034054 0.6862151 -0.25123313 -0.68263519 0.18635853
-0.90971577 -1.0086093 0.44298851 0.77838427 -0.37228498 -0.50549167 0.18635853
-0.97703844 -1.611563 1.0222795 0.79116297 -0.57265192 -0.21478119 0.18635853
-1.0561802 -1.0974755 0.29943472 0.70372587 -0.21059227 -0.67854315 0.18635853
-0.80098742 -1.1742092 0.84075099 0.81489283 -0.43956929 -0.37779421 0.18635853
-0.89763993 -1.0530249 0.4976013 0.81489408 -0.36636445 -0.44913781 0.18635853
-1.4393214 -1.0848289 0.085305147 0.25672048 -0.0054879556 -0.96647012 0.18635853
-1.5533786 -0.81854606 0.063797764 0.1111857 -0.0032761847 -0.99379426 0.18635853
-1.1300248 -1.1007591 0.23362535 0.60936075 -0.15186979 -0.77821273 0.18635853
-0.94460279 -1.2319272 0.54148614 0.87863266 -0.29568759 -0.37493131 0.18635853
-0.85334742 -1.2220435 0.77183717 0.86055017 -0.39072084 -0.32678834 0.18635853
-1.4201585 -0.89993197 0.086838625 0.21429814 -0.032896403 -0.97621417 0.18635853
-0.81682479 -1.1103166 0.72960263 0.82801062 -0.4285458 -0.36158937 0.18635853
-1.6234787 -1.7044965 0.076037757 0.15107962 -0.19097531 -0.96989864 0.18635853
-1.1824135 -1.1055415 0.19694941 0.54270095 -0.1154454 -0.83195436 0.18635853
-0.97462231 -1.2695621 0.50060272 0.87754303 -0.269934 -0.3963002 0.18635853
-0.85787976 -0.95079976 0.47554994 0.75287682 -0.45059142 -0.47973311 0.18635853
-0.84687203 -0.95536375 0.49765158 0.75939089 -0.45848343 -0.46164745 0.18635853
-1.4638567 -1.856454 0.16765453 0.38605925 -0.39572686 -0.83328176 0.18635853
-0.72350997 -0.91988713 0.66887271 0.69602859 -0.59123385 -0.4074147 0.18635853
-1.6742606 -1.8654805 0.11587172 0.10116018 -0.37393206 -0.92192268 0.18635853
-1.228002 -1.0369827 0.16221255 0.44951224 -0.098440342 -0.88783348 0.18635853
-0.90250915 -1.0210646 0.46383244 0.79148859 -0.3738862 -0.48348203 0.18635853
-1.1385065 -0.88793445 0.1833007 0.44592187 -0.20513652 -0.87124777 0.18635853
-1.42476 -1.7984707 0.16197388 0.43193874 -0.32274026 -0.84218031 0.18635853
-0.94628537 -1.049342 0.41503543 0.78415787 -0.32216853 -0.5303809 0.18635853
-0.8869639 -1.0212538 0.49019012 0.79826784 -0.38844541 -0.46030271 0.18635853
-0.91125971 -1.0768876 0.49167708 0.82349122 -0.34604937 -0.44956872 0.18635853
-0.98882866 -1.0210505 0.34417772 0.7242049 -0.29199633 -0.62471229 0.18635853
-1.327733 -1.1214386 0.12305253 0.37481207 -0.040249232 -0.92622674 0.18635853
-1.363701 -1.0731914 0.10790015 0.32153162 -0.029889457 -0.94642699 0.18635853
-1.4396143 -0.57424062 0.060572162 0.051653985 -0.11977416 -0.99145651 0.18635853
-1.3695487 -1.1680834 0.10849974 0.3450588 -0.024646737 -0.9382574 0.18635853
-1.8894502 -2.6021411 3.5718474 -0.66681421 -0.58070868 -0.46705058 0.18635853
-0.88039827 -1.0540899 0.53082246 0.82070386 -0.38211545 -0.42477396 0.18635853
-0.64781934 -0.88965088 0.74121964 0.60230291 -0.67027134 -0.43355229 0.18635853
-1.1770626 -1.098825 0.19950525 0.5459891 -0.11979114 -0.82918394 0.18635853
-0.80130166 -0.91696066 0.53110987 0.72832906 -0.52444571 -0.44101414 0.18635853
-1.4815642 -1.3056353 0.074896969 0.26126587 -0.012331474 -0.96518809 0.18635853
-1.5251849 -0.63297701 0.060989898 0.056481514 -0.057754431 -0.99673182 0.18635853
