# .PCD v0.7 - Point Cloud Data file format
VERSION 0.7
FIELDS x y z normal_x normal_y normal_z curvature
SIZE 4 4 4 4 4 4 4
TYPE F F F F F F F
COUNT 1 1 1 1 1 1 1
WIDTH 139
HEIGHT 1
VIEWPOINT 0 0 0 1 0 0 0
POINTS 139
DATA ascii
-0.5571869 -0.26839 0.45275906 0.26739275 -0.92303038 -0.27661529 0.07633622
-0.82151932 -0.3279244 0.33568382 0.4333756 -0.65173334 -0.62243813 0.07633622
-0.84491295 -0.31435511 0.30684882 0.40417421 -0.63245088 -0.66079426 0.07633622
-0.82462955 -0.23051912 0.23792318 0.2843321 -0.65456325 -0.70050144 0.07633622
-0.95432186 -0.38039106 0.29718265 0.41689155 -0.55058742 -0.72322536 0.07633622
-0.91590166 -0.25894326 0.22403878 0.31297964 -0.57534045 -0.75566334 0.07633622
-0.77419579 -0.087772787 0.11570964 0.041412 -0.68509215 -0.72727829 0.07633622
-1.0068058 -0.62770581 0.45916569 0.55124462 -0.55211371 -0.6255396 0.07633622
-1.267447 -0.80941135 0.46886897 0.16723312 -0.65130246 -0.74016088 0.07633622
-0.50620008 -0.24054192 0.39224768 0.096303038 -0.95443159 -0.28246424 0.07633622
-0.61304027 -0.34143999 0.87827486 0.71313626 -0.69409394 0.098337546 0.07633622
-0.41563821 -0.055270746 -0.061687116 -0.44805202 -0.76547652 -0.46183884 0.07633622
-0.42125508 -0.24319457 0.41851377 -0.018857663 -0.98589379 -0.16630656 0.07633622
-0.80639046 -0.31946534 0.33718297 0.42579657 -0.66672254 -0.61170119 0.07633622
-0.39816427 -0.24386699 0.41708285 -0.057614539 -0.98779291 -0.14472632 0.07633622
-0.91365492 -0.32477808 0.27650431 0.38653666 -0.57692528 -0.71954614 0.07633622
-0.73175639 0.011236031 0.018612597 -0.13993564 -0.68518943 -0.71479607 0.07633622
-1.1226687 -0.48804137 0.28605282 0.32830715 -0.50363362 -0.79910421 0.07633622
-1.7721987 -1.2404979 2.8951769 -0.51416457 -0.85165447 -0.10158468 0.07633622
-0.84899354 -0.32177305 0.31140712 0.41295436 -0.6282959 -0.65932769 0.07633622
-0.88870198 -0.30495295 0.27354386 0.37500641 -0.59635276 -0.70974195 0.07633622
-0.73498994 -0.28404796 0.34361753 0.37225384 -0.74334729 -0.55575341 0.07633622
-1.2114047 -0.92254651 0.5978986 0.27738991 -0.71337885 -0.64354134 0.07633622
-0.8888759 -0.53872019 0.49682868 0.64230663 -0.57239962 -0.50970668 0.07633622
-0.81576723 -0.2891264 0.29930991 0.37484956 -0.6611377 -0.64991128 0.07633622
-0.64500535 -0.28101218 0.40589589 0.35059413 -0.83894265 -0.41624388 0.07633622
-0.9930892 -0.5650261 0.41688046 0.52738321 -0.54603398 -0.65093303 0.07633622
-1.2278012 -0.72541547 0.41024521 0.23716168 -0.59583938 -0.76728725 0.07633622
-0.82129407 -0.27618977 0.28329405 0.3538655 -0.65672469 -0.66595191 0.07633622
-0.76137888 -0.19864397 0.22924204 0.21407391 -0.71567798 -0.66481376 0.07633622
-0.84899354 -0.32177305 0.31140712 0.41295436 -0.6282959 -0.65932769 0.07633622
-1.0690954 -0.78363657 2.27211 0.96336377 -0.1936722 0.18552999 0.07633622
-0.62340659 -0.35395822 0.86482191 0.72426927 -0.68517137 0.077293351 0.07633622
-0.67014468 0.0070923558 0.0073558865 -0.20704965 -0.71609509 -0.666587 0.07633622
-1.5920783 -0.77330655 0.47846776 -0.31346461 -0.67588806 -0.66701972 0.07633622
-1.3847318 -0.75587612 0.41248062 -0.019423651 -0.63724399 -0.77041733 0.07633622
-0.70618927 0.018989557 0.0052427864 -0.17911252 -0.69523638 -0.69610709 0.07633622
-1.0494694 -0.36880958 0.24212781 0.33576539 -0.50263131 -0.79663253 0.07633622
-0.63822448 -0.35644069 0.62987131 0.60831225 -0.77675986 -0.163096 0.07633622
-0.87561381 -0.74292547 1.3021663 0.93114769 -0.3478092 0.10951144 0.07633622
-0.63817465 -0.26740599 0.38412637 0.30771995 -0.8479926 -0.43152869 0.07633622
-0.7181446 -0.35068104 0.45979548 0.52247596 -0.73973548 -0.4240405 0.07633622
-0.53878903 -0.27887368 0.51779622 0.31301576 -0.93119842 -0.18679048 0.07633622
-0.55228621 -0.18418528 0.2480092 -0.023048125 -0.88977206 -0.45582291 0.07633622
-0.8170774 -0.49748561 0.54856586 0.68697494 -0.60421133 -0.40372524 0.07633622
-0.87679112 -0.56103164 0.53971732 0.68239027 -0.56978029 -0.45792356 0.07633622
-0.79564995 -0.29922938 0.32220453 0.39526805 -0.6795634 -0.61802655 0.07633622
-0.92111939 -0.24203581 0.20922995 0.29324818 -0.57108623 -0.76672423 0.07633622
-0.58111358 -0.037186347 0.026601261 -0.26144782 -0.76775497 -0.58497638 0.07633622
-0.7622571 -0.22906715 0.26223096 0.26945701 -0.71676457 -0.64314967 0.07633622
-0.86781251 -0.33180064 0.30899686 0.41786537 -0.61183041 -0.6716041 0.07633622
-0.65345055 -0.29611808 0.42896891 0.39677483 -0.82606173 -0.40023959 0.07633622
-0.68653089 -0.32927179 1.2281475 0.84213966 -0.47902766 0.2476555 0.07633622
-0.60108137 -0.29914245 0.49932766 0.40704465 -0.87199849 -0.27190676 0.07633622
-0.7795859 -0.25874689 0.28698391 0.3262966 -0.69879955 -0.63656086 0.07633622
-0.82909948 -0.26899719 0.27226925 0.34201559 -0.64968085 -0.67892569 0.07633622
-1.5884991 -0.64306331 0.35929739 -0.25196835 -0.6083014 -0.75264955 0.07633622
-0.87089056 -0.30030733 0.27906722 0.37583143 -0.61107183 -0.69666487 0.07633622
-0.58488494 -0.24692376 0.37402618 0.20690978 -0.89880192 -0.38644981 0.07633622
-0.80954552 -0.14614226 0.16492978 0.15303782 -0.66377497 -0.73210806 0.07633622
-0.71302778 -0.32748309 0.42617002 0.47107941 -0.7550624 -0.45603174 0.07633622
-0.59758931 -0.30159903 0.51297569 0.4178302 -0.87253523 -0.25318021 0.07633622
-0.56844378 -0.15094735 0.18972546 -0.079913534 -0.8565371 -0.50986075 0.07633622
-1.4763097 -0.86319661 0.52685601 -0.19874743 -0.71494007 -0.67034334 0.07633622
-0.83753818 -0.32390982 0.320804 0.42075273 -0.63801622 -0.64490497 0.07633622
-0.65540856 -0.20813259 0.27463543 0.16158484 -0.82328999 -0.54413593 0.07633622
-0.72244656 -0.081042171 0.10990583 -0.01831512 -0.72383511 -0.68972987 0.07633622
-0.87838411 -0.30284297 0.27724093 0.3763653 -0.60476172 -0.70186359 0.07633622
-0.42639744 -0.25802922 0.59201545 0.15764779 -0.98749256 0.0023716858 0.07633622
-0.58912301 -0.012905784 -0.00085891946 -0.28317007 -0.75002003 -0.59773296 0.07633622
-1.3728229 -0.89190555 0.53843087 -0.041289221 -0.72308666 -0.68952221 0.07633622
-1.3983737 -0.76522672 0.42085788 -0.043289363 -0.64506578 -0.76289988 0.07633622
-0.91452432 -0.18611731 0.17017075 0.2322811 -0.57486129 -0.78458905 0.07633622
-0.60627687 -0.28767014 0.45882702 0.36313596 -0.87444842 -0.32167101 0.07633622
-0.75404549 -0.38502172 0.47119027 0.57074094 -0.6932739 -0.44002968 0.07633622
-0.76137888 -0.19864397 0.22924204 0.21407391 -0.71567798 -0.66481376 0.07633622
-0.84491295 -0.31435511 0.30684882 0.40417421 -0.63245088 -0.66079426 0.07633622
-0.91590166 -0.25894326 0.22403878 0.31297964 -0.57534045 -0.75566334 0.07633622
-0.64651901 -0.040051356 0.053389631 -0.17181304 -0.75006765 -0.63865393 0.07633622
-0.74584365 -0.30611852 0.36536658 0.41709635 -0.72838259 -0.54358941 0.07633622
-0.87456256 -0.74160999 1.2973872 0.9308778 -0.34891483 0.10828166 0.07633622
-0.57328027 -0.29576364 0.53379822 0.39828607 -0.89403671 -0.20510121 0.07633622
-0.40452361 -0.25461832 0.53447646 0.063952513 -0.99730831 -0.03586369 0.07633622
-0.82591772 -0.34541416 0.35089213 0.45788187 -0.64537543 -0.61142027 0.07633622
-1.0494694 -0.36880958 0.24212781 0.33576539 -0.50263131 -0.79663253 0.07633622
-0.7598272 -0.078171939 0.10710941 0.014292243 -0.69436991 -0.71947628 0.07633622
-0.4704437 -0.10139089 0.06266778 -0.31976029 -0.82339114 -0.46880743 0.07633622
-0.65345055 -0.29611808 0.42896891 0.39677483 -0.82606173 -0.40023959 0.07633622
-0.58896798 -0.0043460499 -0.011619078 -0.29407126 -0.74446291 -0.59941399 0.07633622
-0.82240367 -0.32961375 0.33683443 0.43559036 -0.65071797 -0.62195432 0.07633622
-0.5859831 -0.012647315 -0.0026860074 -0.28751075 -0.7503264 -0.59527129 0.07633622
-0.32543004 -0.21119969 0.81856972 0.086223535 -0.96020132 0.26566702 0.07633622
-1.0414773 -0.72911614 0.52065665 0.55621028 -0.57426196 -0.60071069 0.07633622
-0.56409973 -0.026258834 0.0039572753 -0.29829648 -0.76227975 -0.57441169 0.07633622
-0.84037256 -0.30676702 0.30230933 0.39495698 -0.63706702 -0.66193247 0.07633622
-0.55616087 -0.27949637 0.49427316 0.31839997 -0.91943353 -0.23078875 0.07633622
-0.72308362 -0.27323624 0.33672145 0.34812579 -0.75723189 -0.55263764 0.07633622
-0.7629258 -0.074146576 0.10318869 0.011156212 -0.69090003 -0.72286427 0.07633622
-0.76323736 -0.085257523 0.11384043 0.028069776 -0.69343293 -0.71997422 0.07633622
-0.44212452 -0.19204956 0.23750201 -0.17975575 -0.92203826 -0.34283134 0.07633622
-0.44121388 -0.17097427 0.1838786 -0.23463784 -0.89568168 -0.37775582 0.07633622
-0.82112128 -0.26189196 0.26938418 0.33191392 -0.65751702 -0.67639083 0.07633622
-0.87159115 -0.30248421 0.28059721 0.37838933 -0.61039287 -0.69587499 0.07633622
-0.64242059 -0.068416312 0.086408861 -0.1334853 -0.76769954 -0.62675279 0.07633622
-0.7580024 -0.33833379 0.39865747 0.47758514 -0.70840448 -0.51968795 0.07633622
-0.3380698 -0.25226045 0.4441523 -0.12455898 -0.99009323 -0.064811207 0.07633622
-0.64808691 -0.30238608 0.44797358 0.41554344 -0.82876945 -0.37478647 0.07633622
-1.032254 -0.39049751 0.26374924 0.36359191 -0.51242191 -0.77796191 0.07633622
-0.79328585 -0.30247 0.32732111 0.40126973 -0.6814813 -0.61201787 0.07633622
-0.46067744 -0.16768171 0.18745364 -0.21006165 -0.89392406 -0.39594683 0.07633622
-0.87599933 -0.30044201 0.27644345 0.37420413 -0.60681564 -0.70124608 0.07633622
-0.91543496 -0.32863611 0.27863479 0.38983804 -0.57559025 -0.71883386 0.07633622
-0.98579282 -0.13434492 0.11704616 0.18217364 -0.52072126 -0.83406359 0.07633622
-1.3774648 -0.75283331 0.40984818 -0.0073056025 -0.63425142 -0.77309233 0.07633622
-0.40693796 -0.037506197 -0.099335589 -0.47456068 -0.74732643 -0.46507564 0.07633622
-0.47237378 -0.23224689 0.36984202 0.011472937 -0.96375936 -0.26652622 0.07633622
-0.37380153 -0.25067377 0.46680906 -0.050507236 -0.99593604 -0.074568339 0.07633622
-0.61407053 -0.23037943 0.32615933 0.18221077 -0.86842847 -0.46111953 0.07633622
-0.38203308 -0.25163442 0.48479205 -0.020850645 -0.99769217 -0.064618953 0.07633622
-0.33467999 -0.25445387 0.53873909 -0.055947945 -0.99811435 0.02524996 0.07633622
-0.44109112 -0.25731349 0.52208203 0.12260352 -0.98902965 -0.082393542 0.07633622
-0.64339936 -0.37706989 0.74446082 0.6983338 -0.71403819 -0.049793147 0.07633622
-0.54336935 -0.27956688 0.51362455 0.3171055 -0.92788196 -0.1961612 0.07633622
-0.42012843 -0.047749445 -0.069692753 -0.45051733 -0.76043546 -0.46773073 0.07633622
-0.73940915 -0.49445084 1.0400212 0.87678796 -0.47199202 0.092013232 0.07633622
-0.58643687 -0.0075109568 -0.0089161936 -0.29336399 -0.74688077 -0.59674674 0.07633622
-0.5418691 -0.00017144272 -0.043414302 -0.35749537 -0.74449229 -0.56385124 0.07633622
-0.41389725 -0.06503462 -0.047001194 -0.43991837 -0.77361006 -0.45606941 0.07633622
-0.53465557 -0.17623112 0.23051928 -0.070110001 -0.8910675 -0.44842309 0.07633622
-0.70606053 -0.2798219 0.35737747 0.36042765 -0.77471149 -0.5195325 0.07633622
-0.66062784 -0.39703706 0.77964574 0.73898071 -0.67292076 -0.032941882 0.07633622
-0.68310928 -0.1323887 0.16809854 0.028182609 -0.77269566 -0.63415074 0.07633622
-0.71151614 -0.31268987 0.40362385 0.43696138 -0.76175559 -0.47832328 0.07633622
-0.51699263 -0.22103295 0.3317866 0.036232065 -0.93589234 -0.35041797 0.07633622
-0.96772236 -0.70012242 0.57296598 0.66420954 -0.55757946 -0.4979265 0.07633622
-0.83062994 -0.24766383 0.25138012 0.31017351 -0.64880526 -0.69486988 0.07633622
-0.6340695 -0.29859373 0.45503351 0.40365747 -0.84382164 -0.35358974 0.07633622
-0.66166145 -0.2849471 0.39957282 0.36581373 -0.8208881 -0.43854648 0.07633622
-0.74317271 -0.045492604 0.074981138 -0.050270762 -0.69734019 -0.71497518 0.07633622
