# .PCD v0.7 - Point Cloud Data file format
VERSION 0.7
FIELDS x y z normal_x normal_y normal_z curvature
SIZE 4 4 4 4 4 4 4
TYPE F F F F F F F
COUNT 1 1 1 1 1 1 1
WIDTH 87
HEIGHT 1
VIEWPOINT 0 0 0 1 0 0 0
POINTS 87
DATA ascii
2.0313253 0.14944588 2.7306473 -0.41710767 -0.83647251 0.35543627 0.074198604
1.0206375 0.17668547 1.5132897 -0.72785449 -0.005602139 0.6857087 0.074198604
0.39404544 0.56160241 0.92996955 0.055910371 0.4363524 0.89803708 0.074198604
0.45159131 0.15352309 1.1122451 -0.41998491 0.26203385 0.86887914 0.074198604
-0.11922592 -0.27531475 0.97729385 -0.44197789 0.6273495 0.64116156 0.074198604
1.0176003 0.25791001 1.4970077 -0.77010161 0.21604471 0.60022342 0.074198604
0.09097752 0.47146568 0.94562632 -0.090997823 0.030804362 0.99537456 0.074198604
0.38366139 0.38924259 1.0042143 -0.19939217 0.35046369 0.91510546 0.074198604
0.47471285 0.22389768 1.0995783 -0.39173651 0.32047772 0.8624596 0.074198604
0.24446107 -0.0013728458 1.0516576 -0.42827669 0.21299243 0.87818754 0.074198604
0.31202194 0.26329222 1.022431 -0.32055748 0.2259109 0.91989517 0.074198604
0.24389634 0.27808112 0.9966563 -0.29787463 0.16797742 0.93970966 0.074198604
0.23438185 0.39729357 0.9726634 -0.17379127 0.18076976 0.96804899 0.074198604
1.3905022 0.96840215 2.3416626 -0.71012402 0.58856672 -0.38641053 0.074198604
0.61340386 -0.27063239 1.2486731 -0.26235521 0.017166218 0.96481866 0.074198604
0.62666702 0.25127563 1.1630168 -0.43969312 0.41866776 0.79459882 0.074198604
0.031907681 0.02939941 0.93895495 -0.45657349 0.11686257 0.8819772 0.074198604
0.30318758 0.55105072 0.93858582 0.031433795 0.31645274 0.94808733 0.074198604
0.37921324 0.38790524 1.003751 -0.20040299 0.34469816 0.91707242 0.074198604
0.75471896 0.0049144216 1.3095173 -0.49816251 0.02570547 0.86670256 0.074198604
0.36657381 0.30693761 1.0284096 -0.29127127 0.29097062 0.91131616 0.074198604
0.19808774 0.5604775 0.93955785 0.030394379 0.18511872 0.98224604 0.074198604
0.22273265 0.097259752 1.0200998 -0.4095535 0.16908301 0.89648026 0.074198604
0.28467923 0.27186123 1.0111303 -0.30879578 0.20410745 0.92897004 0.074198604
0.095460251 0.35535243 0.94921285 -0.21529688 0.022012701 0.97630054 0.074198604
0.2619383 0.29360434 0.99933094 -0.28608605 0.18724661 0.93973053 0.074198604
0.2792694 0.50673056 0.95217985 -0.033068795 0.27064064 0.96211231 0.074198604
0.23863861 0.39814454 0.97326499 -0.17301355 0.18591934 0.96721268 0.074198604
0.18074881 0.36654299 0.96682513 -0.20559144 0.11427058 0.97194362 0.074198604
0.43152082 0.35687351 1.0293517 -0.25043204 0.38380346 0.88880748 0.074198604
0.41351408 0.59068048 0.91342014 0.10305949 0.46750742 0.87796104 0.074198604
0.46195108 0.18499839 1.1072762 -0.40974078 0.28583211 0.86626351 0.074198604
0.47635487 0.18765944 1.1132402 -0.41300702 0.29333434 0.86219496 0.074198604
0.19329089 -0.078253083 1.0471078 -0.4292123 0.26183867 0.86441731 0.074198604
-0.19253753 -0.12904461 0.82759988 -0.60415173 0.22903414 0.76324576 0.074198604
-0.56142867 -0.59725654 1.8113481 0.34812498 0.89161634 0.28953284 0.074198604
0.32258287 0.49334776 0.9582181 -0.050301045 0.32141855 0.94560027 0.074198604
-0.16887635 -0.20037946 0.87906075 -0.56923532 0.43286541 0.69899833 0.074198604
0.075557359 0.039928336 0.95968521 -0.44369701 0.13135196 0.88649851 0.074198604
0.061856125 0.0086292215 0.95774299 -0.45704809 0.15456916 0.87590832 0.074198604
0.12246286 -0.032756366 0.998281 -0.44969571 0.21744697 0.86630857 0.074198604
1.0176003 0.25791001 1.4970077 -0.77010161 0.21604471 0.60022342 0.074198604
1.0447329 0.17618732 1.5392202 -0.73669046 -0.049373239 0.67442524 0.074198604
0.024416521 0.16754813 0.92714739 -0.37701356 0.0020932348 0.9262054 0.074198604
0.027093463 0.070846155 0.93210733 -0.43798628 0.073709525 0.89595473 0.074198604
0.14065911 0.57111502 0.93981683 0.034145527 0.117459 0.99249053 0.074198604
0.35222402 0.28691447 1.0298401 -0.3075141 0.26896358 0.91273963 0.074198604
0.39006215 0.27668583 1.046265 -0.32547817 0.29674187 0.89777958 0.074198604
-0.067036234 0.24438766 0.89764702 -0.32040814 -0.11622782 0.94012219 0.074198604
0.31363109 0.10139983 1.0610043 -0.41209143 0.20410591 0.88798732 0.074198604
0.39418748 0.13123992 1.0912039 -0.4141928 0.23455381 0.87944806 0.074198604
0.33681735 0.051297389 1.0837299 -0.42355865 0.2097142 0.88125932 0.074198604
0.24374141 -0.00079494715 1.0511665 -0.42832756 0.212666 0.87824184 0.074198604
-0.029746626 0.29317686 0.91487223 -0.27596179 -0.095919639 0.95637047 0.074198604
0.080412477 0.06780082 0.95829165 -0.43142173 0.11073905 0.89532799 0.074198604
0.17364061 0.061608307 1.0038171 -0.42358536 0.16272014 0.89112157 0.074198604
0.13059901 -0.002902007 0.99544871 -0.444756 0.19225222 0.87477493 0.074198604
0.32175002 0.40903154 0.98527539 -0.16575085 0.28724939 0.94340575 0.074198604
0.32214192 0.35127646 1.002323 -0.23566851 0.26488167 0.93503904 0.074198604
0.24037518 0.25597793 0.9994005 -0.31625864 0.16280875 0.93459821 0.074198604
0.27204067 0.47762871 0.95966184 -0.073103778 0.25137284 0.96512568 0.074198604
0.32762799 0.44863236 0.97361016 -0.11336769 0.31041121 0.94381809 0.074198604
0.5302633 0.4228051 1.0189202 -0.18015815 0.53809208 0.82340753 0.074198604
1.416051 0.80060714 1.9884156 -0.65116405 0.69106621 -0.31370816 0.074198604
0.43152082 0.35687351 1.0293517 -0.25043204 0.38380346 0.88880748 0.074198604
0.75859827 0.34209347 1.1767505 -0.42083666 0.62233961 0.65999234 0.074198604
0.58386445 -0.24609599 1.2394145 -0.28493705 0.049094636 0.95728815 0.074198604
0.94805217 0.02188356 1.4327983 -0.56391305 -0.15333666 0.81147391 0.074198604
0.40990311 0.0057080975 1.1299781 -0.42757994 0.20386511 0.88068974 0.074198604
0.0059549152 -0.043784175 0.93766934 -0.48642316 0.19251561 0.8522501 0.074198604
-0.51732719 -0.49422359 1.3190935 -0.0024097813 0.98879158 0.14928293 0.074198604
0.36613443 -0.3921496 1.219776 -0.11774048 0.32819417 0.9372437 0.074198604
0.22107401 -0.3633804 1.1838524 -0.16796149 0.48603892 0.85764509 0.074198604
0.14192148 -0.18107453 1.0600425 -0.39916477 0.37795222 0.835356 0.074198604
0.28467923 0.27186123 1.0111303 -0.30879578 0.20410745 0.92897004 0.074198604
0.30578175 0.19335945 1.036569 -0.3699258 0.20676768 0.90576047 0.074198604
0.26701197 0.15340191 1.0288765 -0.38727513 0.18155228 0.90391189 0.074198604
0.1686223 -0.17642441 1.0705854 -0.39340577 0.36084551 0.84559 0.074198604
0.19064875 0.41305605 0.96275854 -0.15410456 0.13380828 0.97895205 0.074198604
0.2619383 0.29360434 0.99933094 -0.28608605 0.18724661 0.93973053 0.074198604
0.53538573 0.42256388 1.0202075 -0.18179889 0.54353732 0.81946099 0.074198604
0.42918751 0.57276523 0.92154205 0.076447926 0.48310935 0.87221617 0.074198604
0.36657381 0.30693761 1.0284096 -0.29127127 0.29097062 0.91131616 0.074198604
0.93030423 0.14698333 1.4270867 -0.66110438 0.067270361 0.74727219 0.074198604
0.40927199 -0.067297056 1.1461719 -0.40887991 0.19795896 0.89085883 0.074198604
0.50367236 0.17130908 1.1321956 -0.42942742 0.28918484 0.8555491 0.074198604
0.21835984 -0.35698503 1.1796825 -0.17796491 0.48469707 0.85638613 0.074198604
