# .PCD v0.7 - Point Cloud Data file format
VERSION 0.7
FIELDS x y z normal_x normal_y normal_z curvature
SIZE 4 4 4 4 4 4 4
TYPE F F F F F F F
COUNT 1 1 1 1 1 1 1
WIDTH 106
HEIGHT 1
VIEWPOINT 0 0 0 1 0 0 0
POINTS 106
DATA ascii
-0.24888146 -1.2412663 0.64627612 0.65566117 -0.67755646 -0.33320513 0.12026206
-0.2546382 -0.45596066 0.53238714 0.81247437 0.23510176 -0.53349096 0.12026206
0.11208954 -0.93442905 0.85861993 0.7015478 -0.10721155 -0.70451146 0.12026206
-0.2551665 -0.51084727 0.50915724 0.80004215 0.21234918 -0.56110638 0.12026206
-0.73003483 -1.1278318 0.038454764 0.53103924 0.0049307593 -0.84733289 0.12026206
-0.53662348 -1.2383367 0.21290971 0.71464241 -0.23830166 -0.65764624 0.12026206
-0.38254347 -0.58902204 0.32413799 0.75392562 0.089383788 -0.65085071 0.12026206
-0.36675933 -0.69720328 0.32828265 0.73069239 0.072351247 -0.67886221 0.12026206
-0.42380202 -0.58392513 0.27820909 0.73701459 0.059911005 -0.67321628 0.12026206
-0.18418391 -0.9260636 0.52268165 0.76002121 -0.063448884 -0.6467936 0.12026206
-1.4435298 -1.8010976 1.0734375 0.440777 -0.73839945 0.51037431 0.12026206
-0.28598064 -0.49307621 0.47152498 0.8046394 0.19293755 -0.56154299 0.12026206
-0.2733562 -0.44057262 0.51032013 0.81814474 0.22314094 -0.52995026 0.12026206
-0.30156195 -1.2552307 0.56994867 0.68873054 -0.63088197 -0.35726497 0.12026206
-0.30072981 -0.84245795 0.38832316 0.7361685 0.018596981 -0.6765427 0.12026206
-0.67004889 -1.1802143 0.081113167 0.60017341 -0.054809209 -0.79798985 0.12026206
-0.42414355 -0.52295351 0.28340733 0.76035726 0.060314443 -0.64669853 0.12026206
0.33107218 -0.69826144 1.0975702 0.57596469 0.3570447 -0.73537999 0.12026206
-0.16583744 -0.39410415 0.70758635 0.79870081 0.34157419 -0.49538279 0.12026206
-0.20741527 -0.41044283 0.62999821 0.81111932 0.29781288 -0.50338149 0.12026206
-0.432028 -0.71584803 0.26006278 0.6947307 0.040011488 -0.71815616 0.12026206
-0.28055656 -0.99860954 0.422068 0.74528909 -0.13234162 -0.65347522 0.12026206
-0.23303548 -0.38096127 0.6052289 0.82302326 0.28673846 -0.49032003 0.12026206
-0.42204997 -0.58811253 0.27974981 0.73642075 0.06096581 -0.67377126 0.12026206
-1.0846608 -0.34336489 -0.15495378 0.057593364 -0.46542722 -0.88321036 0.12026206
-1.0770634 -0.25802821 -0.21085586 0.010196487 -0.63025308 -0.77632278 0.12026206
-0.6671772 -1.1180588 0.079948269 0.57294166 -0.030919645 -0.8190127 0.12026206
-1.6058333 -1.120082 -0.21269666 0.080201961 0.37425506 -0.92385107 0.12026206
-0.89008957 -1.1684109 2.1684885 0.0072488091 -0.96344483 0.26780865 0.12026206
-0.20074984 -0.84046715 0.50162303 0.7591002 0.032151829 -0.65017927 0.12026206
-0.34415427 -1.0649902 0.36633343 0.73478675 -0.18676986 -0.65207779 0.12026206
-0.56667233 -0.69671047 0.14391223 0.60608733 -0.0090865549 -0.7953462 0.12026206
-0.36749104 -0.56597793 0.34545702 0.76711571 0.10474247 -0.63290006 0.12026206
-0.15560533 -0.81540388 0.55670971 0.76380956 0.063637465 -0.64229685 0.12026206
-0.1950561 -0.86700869 0.50747848 0.75920862 0.0059973029 -0.65081978 0.12026206
-0.63922209 -0.63992494 0.090027563 0.55484778 -0.051229421 -0.83037311 0.12026206
-0.69091475 -0.57512385 0.050973285 0.51717442 -0.10883381 -0.84893215 0.12026206
-0.33246163 -0.48118606 0.40917987 0.8047418 0.15284635 -0.57361019 0.12026206
-0.22184554 -1.1802474 0.59896129 0.71084273 -0.53661656 -0.45469248 0.12026206
-0.63878888 -0.59929049 0.087339774 0.56479973 -0.070666432 -0.82219678 0.12026206
-0.39437944 -0.4112471 0.33600098 0.82079208 0.089660816 -0.56414652 0.12026206
-1.0254524 -1.1311865 -0.10234085 0.32485077 0.16479112 -0.93129796 0.12026206
-0.60401142 -1.3418828 0.17862757 0.74143523 -0.28610134 -0.60697597 0.12026206
-0.55481172 -1.1731249 0.17673048 0.67309475 -0.14751734 -0.72469449 0.12026206
-0.60200053 -1.1229938 0.12893154 0.62067282 -0.074902944 -0.78048372 0.12026206
-0.00057863141 -1.2563264 1.2632562 0.16431431 -0.98121983 -0.10103668 0.12026206
-0.53891492 -0.6233235 0.16525663 0.64719921 -0.010941681 -0.76224238 0.12026206
-0.28813481 -0.58549505 0.44078922 0.78022563 0.15738286 -0.60537475 0.12026206
0.24024086 -1.2877905 1.609661 -0.10351355 -0.98850018 -0.11023792 0.12026206
-0.47365931 -0.63684922 0.22397797 0.69021577 0.026944349 -0.72310179 0.12026206
-0.34680045 -0.38395858 0.41509426 0.83911669 0.15401478 -0.5216921 0.12026206
-0.33622876 -0.72392201 0.35854247 0.73723441 0.075335331 -0.67142385 0.12026206
-0.27748573 -1.0385097 0.43549818 0.74855667 -0.18823311 -0.63579184 0.12026206
-0.30567169 -0.35104489 0.49620178 0.84730142 0.21461844 -0.48581812 0.12026206
-0.36773503 -0.52618426 0.35205263 0.78098404 0.11129198 -0.61455512 0.12026206
-0.0810434 -0.76674521 0.65339303 0.76181769 0.13101248 -0.63440484 0.12026206
-0.21300565 -0.37150744 0.64477116 0.8180114 0.31057429 -0.48414969 0.12026206
-0.19429289 -0.61084819 0.55592275 0.78011131 0.20446937 -0.59128559 0.12026206
-0.36108422 -0.99540025 0.33333817 0.71897531 -0.1004375 -0.68774039 0.12026206
-0.36860165 -0.58227354 0.34149367 0.76135111 0.10076787 -0.64046103 0.12026206
-0.46717605 -0.60181159 0.23168819 0.70587552 0.029588107 -0.70771772 0.12026206
-0.45751706 -0.5392803 0.24451724 0.73566127 0.031655725 -0.67660952 0.12026206
-1.4069692 -0.38877913 -0.12458524 -0.10980262 -0.25164726 -0.96157008 0.12026206
-0.67363936 -0.62295789 0.066630647 0.52516192 -0.071852393 -0.84796357 0.12026206
-0.65742522 -0.67159277 0.08002653 0.53189391 -0.043757524 -0.8456797 0.12026206
-0.59532517 -0.71520001 0.12309621 0.57921582 -0.014306639 -0.81504869 0.12026206
-0.66869432 -0.67376059 0.073152252 0.52110219 -0.045810938 -0.85226393 0.12026206
-0.61551309 -0.72152209 0.10920178 0.56129611 -0.017878471 -0.8274219 0.12026206
-0.34813932 -0.47902536 0.38786796 0.80301684 0.13766652 -0.57983786 0.12026206
-0.7862606 -0.25159132 -0.14968278 0.35137549 -0.67388618 -0.64993286 0.12026206
-0.45926699 -0.44258118 0.24583921 0.77874732 0.011098304 -0.62723953 0.12026206
-0.38982406 -0.66432047 0.30700415 0.72852314 0.070063241 -0.68142879 0.12026206
-0.49724585 -0.76585221 0.19935437 0.64530152 0.012320789 -0.76382864 0.12026206
-0.38358048 -0.58348608 0.32369602 0.75535125 0.089533463 -0.64917505 0.12026206
-1.1114508 -0.29896474 -0.18180001 0.010563708 -0.53760201 -0.84313256 0.12026206
-0.35807809 -0.647129 0.34401155 0.74612999 0.091962799 -0.65941858 0.12026206
0.38987246 -0.70287025 1.1392829 0.53848141 0.37426564 -0.75495893 0.12026206
-0.2056849 -0.55135494 0.56285226 0.78944761 0.23021537 -0.56901091 0.12026206
-0.44542965 -0.31189603 0.26515582 0.85371602 -0.015861686 -0.52049726 0.12026206
-0.17157899 -1.2870052 1.2104377 0.21562944 -0.976475 0.00075531786 0.12026206
-0.42373168 -0.52179611 0.28400043 0.76103264 0.060665306 -0.64587075 0.12026206
-0.9068327 -0.52599615 -0.055237666 0.28635964 -0.20628154 -0.93565273 0.12026206
-0.81224227 -0.54561156 -0.016547907 0.38826507 -0.1732977 -0.90510672 0.12026206
-0.70500541 -0.95558107 0.055338867 0.49584892 0.010744534 -0.86834234 0.12026206
-0.96755481 -1.1151761 -0.078562662 0.35570976 0.1331871 -0.92505771 0.12026206
-0.74150479 -0.69009453 0.033480626 0.45114258 -0.051665127 -0.89095515 0.12026206
-0.77400601 -0.65205157 0.01492636 0.4223991 -0.077850513 -0.9030605 0.12026206
-0.85158366 -0.75844038 -0.012067603 0.3541595 -0.017748117 -0.93501663 0.12026206
-0.84076947 -1.0643709 -0.019141128 0.42477083 0.065636203 -0.9029184 0.12026206
-0.3290427 -0.62386566 0.38152507 0.76169795 0.11652883 -0.63736749 0.12026206
-0.36628079 -0.40234688 0.37968305 0.83018196 0.12659745 -0.54292816 0.12026206
-0.070165902 -0.51872689 0.76836187 0.76084989 0.33615825 -0.55507219 0.12026206
-0.43049678 -0.5269683 0.27564043 0.75558239 0.054637425 -0.652771 0.12026206
-0.34282112 -0.71555585 0.35225627 0.73636091 0.076116294 -0.67229378 0.12026206
-0.25634766 -0.41310412 0.54963404 0.82233071 0.25025693 -0.51102215 0.12026206
-0.84059572 -1.1358447 -0.024478251 0.45267865 0.069404908 -0.88896853 0.12026206
-0.2964229 -0.90037513 0.39327216 0.73643339 -0.026386237 -0.67599535 0.12026206
-0.36267844 -0.59102434 0.34713548 0.76062381 0.10321808 -0.64093477 0.12026206
-0.56743717 -0.71556652 0.14351746 0.60185874 -0.0066260812 -0.7985751 0.12026206
-0.48351249 -0.88039875 0.21045218 0.64679462 -0.010560268 -0.76259106 0.12026206
-0.8262794 -0.65370971 -0.0076431986 0.37204799 -0.081484184 -0.92462999 0.12026206
-0.39320686 -0.47816154 0.32722712 0.79177195 0.091082998 -0.60398763 0.12026206
-1.1610402 -0.31547707 -0.17179541 -0.015991349 -0.48550782 -0.87408608 0.12026206
-0.57776088 -0.59518784 0.13232762 0.62327629 -0.041032329 -0.7809245 0.12026206
-0.57883936 -0.71117103 0.13496973 0.59346688 -0.010526009 -0.8047896 0.12026206
-0.40259096 -0.94892234 0.28658515 0.69552624 -0.052090675 -0.71660995 0.12026206
