# .PCD v0.7 - Point Cloud Data file format
VERSION 0.7
FIELDS x y z normal_x normal_y normal_z curvature
SIZE 4 4 4 4 4 4 4
TYPE F F F F F F F
COUNT 1 1 1 1 1 1 1
WIDTH 93
HEIGHT 1
VIEWPOINT 0 0 0 1 0 0 0
POINTS 93
DATA ascii
-0.0032746543 -0.015716568 0.9436205 -0.50422466 -0.10646684 0.85698444 0.044098623
0.23042873 0.0078115095 1.0686214 -0.43939883 0.093452454 0.89341778 0.044098623
1.0618685 0.16900772 1.4538668 -0.57036543 0.10698303 0.81439418 0.044098623
1.0936953 -0.26142994 1.5439602 -0.37267542 0.27274197 0.88697511 0.044098623
0.36476499 -0.1499723 1.1619412 -0.48057133 0.16864294 0.86058748 0.044098623
0.4837352 -0.18354601 1.2347764 -0.45589659 0.23739582 0.85778874 0.044098623
0.37269205 0.38675696 1.0222698 -0.27810538 0.4289093 0.85947323 0.044098623
2.0148151 0.15464781 2.753387 -0.56786293 -0.78862911 0.23578762 0.044098623
0.22802402 -0.55008447 1.1821303 -0.71722609 0.36487654 0.59367651 0.044098623
0.76938003 0.13744122 1.287914 -0.43867534 0.24142505 0.86560839 0.044098623
0.33264783 0.28770116 1.0507548 -0.31220183 0.31668857 0.89567763 0.044098623
0.51360625 0.47178605 1.0200831 -0.2907984 0.54527867 0.78619814 0.044098623
-0.10731319 0.38791135 0.89614713 -0.21750389 0.20406161 0.95448989 0.044098623
-0.20933296 -0.10325379 0.77059138 -0.60264218 -0.37599492 0.70388222 0.044098623
0.13953419 0.089169383 1.0185148 -0.40828881 0.07118883 0.91007274 0.044098623
0.022833463 0.17786036 0.96337759 -0.36539066 0.05441846 0.92926222 0.044098623
0.17727728 0.35747588 0.97664696 -0.25515279 0.33209962 0.90807867 0.044098623
-0.025850281 -0.3193064 0.85591686 -0.7374202 -0.2066104 0.64305794 0.044098623
0.19516383 -0.16437784 1.0615484 -0.54705483 0.047467519 0.83574986 0.044098623
-0.0060737957 -0.016794529 0.94183397 -0.50562477 -0.10977319 0.8557415 0.044098623
-0.012575099 -0.063198134 0.93094069 -0.54102051 -0.13853972 0.82952005 0.044098623
0.34612033 0.18570018 1.0868526 -0.35424924 0.23735462 0.90452766 0.044098623
0.10749658 -0.0027837122 1.0063646 -0.47044539 -0.0001035454 0.88242912 0.044098623
0.32665986 0.44722089 0.97579503 -0.23581003 0.48722652 0.84083527 0.044098623
-0.14245997 -0.19561036 0.78382266 -0.66268343 -0.34048754 0.66702241 0.044098623
-0.063611329 0.15568839 0.92831421 -0.39092115 -0.036915511 0.91968358 0.044098623
0.010444063 0.057845578 0.9577601 -0.44925117 -0.050246138 0.89199144 0.044098623
0.277107 0.3313517 1.0162293 -0.28336212 0.34242272 0.89579719 0.044098623
0.13974774 0.24062721 0.99790341 -0.32036912 0.18993303 0.9280566 0.044098623
0.085647799 0.16742213 0.98897618 -0.36658457 0.09069562 0.92595357 0.044098623
0.21597993 0.17890371 1.0380185 -0.35372588 0.17768389 0.9183172 0.044098623
0.24975103 0.17512617 1.0518415 -0.35540804 0.19131939 0.91492188 0.044098623
0.74798548 0.35822365 1.1958224 -0.44088197 0.39664829 0.8051666 0.044098623
0.11318452 0.48927233 0.90273654 -0.16268721 0.46588522 0.86976081 0.044098623
0.42368361 -0.44208351 1.2996989 -0.53476924 0.42251644 0.73177981 0.044098623
0.49369195 0.15530327 1.1554414 -0.37793747 0.25548673 0.88988191 0.044098623
0.75295061 -0.0048971763 1.3170965 -0.42035428 0.22543964 0.87890798 0.044098623
0.56195116 0.0013809812 1.2260207 -0.4092792 0.22105515 0.88522607 0.044098623
0.25350153 -0.37756503 1.1359987 -0.63995111 0.20357652 0.74095827 0.044098623
0.18616505 -0.063991413 1.0509611 -0.4891665 0.044506259 0.87105417 0.044098623
-0.25665602 -0.046787996 0.76231331 -0.5662927 -0.39316866 0.72438318 0.044098623
0.018443726 0.17769942 0.96165937 -0.36592254 0.050932392 0.92925054 0.044098623
0.010444063 0.057845578 0.9577601 -0.44925117 -0.050246138 0.89199144 0.044098623
-0.0018475348 0.19719934 0.95271665 -0.35444075 0.053831004 0.93352771 0.044098623
0.28075457 0.4708603 0.94965595 -0.21035287 0.50292343 0.83834344 0.044098623
0.33984631 0.45393065 0.97556144 -0.2360505 0.49830279 0.83425087 0.044098623
0.25735849 -0.090933941 1.092961 -0.48477069 0.0941099 0.86956352 0.044098623
0.042661674 0.036877807 0.97316617 -0.45763063 -0.03506593 0.88845068 0.044098623
0.11180041 0.018399563 1.0084645 -0.45604113 0.01279041 0.88986677 0.044098623
0.021028414 0.46268341 0.89844817 -0.16808879 0.38731086 0.90649682 0.044098623
0.19951835 0.56400281 0.87042719 -0.13207608 0.58930546 0.79704142 0.044098623
0.2342438 0.53908503 0.89472139 -0.15698136 0.5707292 0.8059932 0.044098623
0.20453335 0.32600772 0.9957003 -0.27615583 0.30883464 0.91014236 0.044098623
0.21100017 0.25866637 1.0180513 -0.31268954 0.2433383 0.91815668 0.044098623
0.20076503 0.12228414 1.0413753 -0.38353485 0.13011754 0.91431421 0.044098623
0.15381451 0.078994155 1.0257784 -0.41231325 0.074933022 0.90795529 0.044098623
0.60825753 -0.089256771 1.2710859 -0.41769356 0.23665863 0.87722564 0.044098623
0.9584806 0.029613176 1.412971 -0.47002897 0.16604644 0.8668918 0.044098623
0.22273526 0.43186411 0.95657372 -0.21933359 0.43768516 0.87196589 0.044098623
0.1883516 0.44800287 0.9400869 -0.20289513 0.44465789 0.87241787 0.044098623
0.2488874 0.38226011 0.98688501 -0.25225952 0.38863811 0.88618594 0.044098623
0.25513932 0.37047288 0.99377513 -0.25968614 0.37745953 0.88886863 0.044098623
0.28784922 0.22401041 1.0545377 -0.33444017 0.24527293 0.90994006 0.044098623
0.092466809 0.35368791 0.9546293 -0.24921848 0.28640014 0.92512977 0.044098623
0.16183402 0.36150396 0.9708817 -0.25093248 0.3298589 0.91006923 0.044098623
1.3384097 0.85292667 2.0815313 -0.9901967 -0.12998463 0.051131677 0.044098623
0.51050079 0.43421507 1.0435677 -0.30522171 0.50162709 0.80945039 0.044098623
0.74279845 0.35518196 1.1944883 -0.43811744 0.3950468 0.80745965 0.044098623
0.35232684 0.30480072 1.0513186 -0.30850336 0.33860916 0.88891482 0.044098623
1.0898184 0.16867 1.473807 -0.58428186 0.083932184 0.80719894 0.044098623
0.4086383 -0.39077246 1.2622712 -0.53919661 0.35444063 0.76396263 0.044098623
0.56482756 -0.77930892 1.8079379 -0.2454123 0.87231421 0.42289564 0.044098623
0.3985061 -0.070534214 1.1642883 -0.44245845 0.17344171 0.87985706 0.044098623
0.53514493 0.0095037343 1.2116445 -0.40819305 0.21709058 0.88670748 0.044098623
-0.0061916765 -0.014960572 0.94199872 -0.5043245 -0.10892864 0.85661626 0.044098623
-0.26055968 0.042176969 0.80214798 -0.503218 -0.33199513 0.79784137 0.044098623
-0.20516467 0.29713112 0.87975371 -0.29573676 -0.0014675782 0.95526832 0.044098623
0.25616273 -0.38325447 1.1398996 -0.64079642 0.21143821 0.73802024 0.044098623
-0.097749621 -0.25924495 0.79918283 -0.70411068 -0.30182526 0.64275163 0.044098623
0.13076718 -0.14932139 1.0183607 -0.56057596 -0.013549345 0.82799214 0.044098623
-0.08187966 -0.28282046 0.80604607 -0.71941453 -0.28458297 0.633605 0.044098623
-0.3252081 -0.11598781 0.65495914 -0.60927945 -0.50475258 0.61155814 0.044098623
-0.27338231 -0.11708536 0.70444375 -0.61278677 -0.45275491 0.64769232 0.044098623
0.8097046 -0.020148205 1.3482894 -0.42566767 0.2189656 0.87798697 0.044098623
0.048451684 0.46455815 0.90276033 -0.1699702 0.40396234 0.89884621 0.044098623
0.4667412 0.15516767 1.1441019 -0.37468842 0.2505984 0.8926416 0.044098623
0.1883516 0.44800287 0.9400869 -0.20289513 0.44465789 0.87241787 0.044098623
0.74798548 0.35822365 1.1958224 -0.44088197 0.39664829 0.8051666 0.044098623
0.43478811 0.57605374 0.9113217 -0.20179294 0.65745211 0.72597265 0.044098623
0.95621639 0.14182238 1.3899082 -0.50895023 0.17223939 0.84338796 0.044098623
0.40704462 -0.19738011 1.1962302 -0.48432732 0.2084173 0.84969956 0.044098623
-0.0060737957 -0.016794529 0.94183397 -0.50562477 -0.10977319 0.8557415 0.044098623
0.31042778 -0.59879607 1.315143 -0.61996228 0.54059768 0.56868351 0.044098623
