# .PCD v0.7 - Point Cloud Data file format
VERSION 0.7
FIELDS x y z normal_x normal_y normal_z curvature
SIZE 4 4 4 4 4 4 4
TYPE F F F F F F F
COUNT 1 1 1 1 1 1 1
WIDTH 601
HEIGHT 1
VIEWPOINT 0 0 0 1 0 0 0
POINTS 601
DATA ascii
-0.096640825 0.22277868 0.92555022 -0.42081645 0.020238303 0.94053495 0.083389558
0.0065774862 -0.41481346 0.99137491 -0.77442241 0.091455825 0.68441522 0.083389558
-0.2115991 -0.0737269 0.81133705 -0.72986627 -0.24164316 0.79267895 0.083389558
-0.049534012 -0.079269677 0.94147074 -0.59782016 -0.055417094 0.8384251 0.083389558
-0.29569477 -0.062975243 0.73259354 -0.80882066 -0.35867968 0.76665908 0.083389558
-0.24672496 -0.22118878 0.71357524 -0.92459738 -0.34513378 0.68509209 0.083389558
-0.30164096 0.042186614 0.7709052 -0.7036373 -0.30446029 0.82516587 0.083389558
-0.24494289 -0.084233694 0.77575815 -0.77465087 -0.29241401 0.77425909 0.083389558
-0.32604119 -0.10278779 0.67700696 -0.89260983 -0.43233538 0.72719502 0.083389558
-0.32709053 -0.037968501 0.71159887 -0.81717551 -0.3933028 0.7691195 0.083389558
-0.34019008 -0.11026348 0.65457582 -0.92115009 -0.46276617 0.71500522 0.083389558
-0.19494303 -0.1517822 0.8031792 -0.78688234 -0.24188378 0.75413042 0.083389558
-0.071090087 -0.44654971 0.89473063 -0.89567882 -0.0080039855 0.62563223 0.083389558
-0.090533257 -0.43919048 0.86673212 -0.91799462 -0.046347361 0.61951208 0.083389558
-0.21661152 -0.17321862 0.77203488 -0.8332296 -0.28013682 0.73171765 0.083389558
-0.11448995 -0.13287206 0.88426918 -0.68978262 -0.13211581 0.7941404 0.083389558
-0.28154713 -0.11611845 0.72267485 -0.85114682 -0.36349162 0.73912871 0.083389558
-0.3305254 -0.03623246 0.70883685 -0.81921172 -0.39767501 0.76876593 0.083389558
-0.2162814 -0.17211854 0.77283061 -0.83170325 -0.27932218 0.73256016 0.083389558
-0.21606429 0.061871056 0.84321922 -0.6113714 -0.18661909 0.86001015 0.083389558
-0.27481523 -0.036966261 0.76481527 -0.75802612 -0.31337282 0.79042929 0.083389558
-0.18894452 -0.0047583831 0.84862494 -0.64716899 -0.1866916 0.83578897 0.083389558
-0.15229127 -0.045529537 0.86877996 -0.65115762 -0.1584492 0.82646686 0.083389558
-0.32422671 -0.10447255 0.67823488 -0.89225882 -0.43015268 0.7269209 0.083389558
-0.18832166 -0.24779314 0.77815467 -0.87404782 -0.24856773 0.6966787 0.083389558
-0.18460332 -0.13895646 0.81765717 -0.76353174 -0.22410251 0.76577204 0.083389558
-0.28425866 -0.14390905 0.70525128 -0.88641983 -0.38140061 0.71944451 0.083389558
-0.32457763 -0.098945215 0.68105894 -0.88599557 -0.42738676 0.73051322 0.083389558
-0.26664689 -0.28658107 0.6462937 -1.0350258 -0.40709352 0.62484866 0.083389558
-0.27895856 -0.2854363 0.6263656 -1.0546964 -0.43396562 0.6178301 0.083389558
-0.26356933 -0.29085529 0.64862788 -1.0353208 -0.40191945 0.62343597 0.083389558
-0.31306535 -0.072008774 0.7093038 -0.83958161 -0.39163852 0.7535584 0.083389558
-0.38067901 -0.11496987 0.59625846 -0.98655194 -0.54507571 0.69001985 0.083389558
-0.18935071 -0.29514778 0.75926703 -0.92453134 -0.25463706 0.66391981 0.083389558
-0.19378924 -0.041838467 0.83587688 -0.68383884 -0.2069694 0.81571436 0.083389558
-0.35354254 -0.076574303 0.65938824 -0.89668679 -0.46408626 0.73187852 0.083389558
-0.35149869 -0.095142804 0.64995122 -0.91751111 -0.47341141 0.71996492 0.083389558
-0.16740564 -0.028924344 0.86020911 -0.64986277 -0.17061801 0.83019656 0.083389558
-0.18975638 -0.13628809 0.81330031 -0.7664845 -0.23069274 0.7653178 0.083389558
-0.23685616 -0.19653878 0.73816609 -0.88348269 -0.32004094 0.7070474 0.083389558
-0.25733966 -0.23741773 0.69021416 -0.95905292 -0.37047234 0.66770327 0.083389558
-0.15262488 -0.32009879 0.80126125 -0.8981877 -0.1891479 0.66640282 0.083389558
-0.35005254 -0.11542607 0.63820767 -0.9417327 -0.48483166 0.70624226 0.083389558
-0.26255119 -0.27517033 0.66019577 -1.0136186 -0.3941597 0.63631099 0.083389558
0.066377431 -1.0797524 2.1443057 -0.56377453 1.9080867 0.40113217 0.083389558
-0.35034236 -0.097239763 0.65004784 -0.9186002 -0.4727346 0.71906883 0.083389558
-0.36782253 -0.12799522 0.60450286 -0.98498565 -0.52907461 0.68732893 0.083389558
0.13979134 -0.82312983 1.475862 -0.71730459 0.92783284 0.52699983 0.083389558
-0.2488738 -0.20860887 0.71701008 -0.91320866 -0.34496352 0.69276339 0.083389558
-0.16698217 -0.44159633 0.74019587 -1.0457908 -0.20073895 0.56917989 0.083389558
0.034570243 -0.64562988 1.1112766 -0.85910392 0.37890631 0.55968523 0.083389558
-0.34221131 -0.11943088 0.64590889 -0.93573582 -0.47264493 0.70744544 0.083389558
-0.23275396 -0.35573962 0.66160053 -1.0640885 -0.35085317 0.59198511 0.083389558
-0.29267505 -0.27060392 0.6136471 -1.0585922 -0.45813712 0.62085932 0.083389558
-0.33365831 -0.091576189 0.67439884 -0.88895392 -0.43876234 0.73117721 0.083389558
-0.30153188 -0.10907736 0.70297563 -0.86821765 -0.39338696 0.73457921 0.083389558
-0.22462472 -0.3073439 0.70183587 -0.99146116 -0.32409456 0.63488668 0.083389558
-0.14266464 -0.29213083 0.82165527 -0.85829294 -0.17453212 0.68998843 0.083389558
-0.19706364 -0.18522781 0.78976029 -0.82202309 -0.25251919 0.73283046 0.083389558
-0.14174773 -0.26523888 0.82948136 -0.83224249 -0.17439872 0.70759565 0.083389558
-0.34110802 -0.095512465 0.66281152 -0.90378606 -0.45466185 0.72486216 0.083389558
-0.33825848 -0.11521231 0.65386611 -0.9247551 -0.46243423 0.71248645 0.083389558
-0.34622571 -0.11440156 0.64397848 -0.9349376 -0.47684753 0.7089712 0.083389558
-0.18191987 -0.33912116 0.7532258 -0.96019489 -0.24200009 0.63680965 0.083389558
-0.22364196 -0.20593892 0.75048691 -0.87636721 -0.30017492 0.70720756 0.083389558
-0.27158362 -0.28069386 0.64199448 -1.0357529 -0.41563809 0.6263597 0.083389558
-0.29114637 -0.14080073 0.69840354 -0.89189273 -0.39193103 0.71820772 0.083389558
-0.32432193 -0.1220748 0.66747785 -0.91406959 -0.44105092 0.71470815 0.083389558
-0.30244237 -0.12103553 0.69537705 -0.88345122 -0.40142497 0.7261492 0.083389558
-0.1045696 -0.18469226 0.88473552 -0.72238326 -0.12329728 0.76999933 0.083389558
-0.32370576 -0.073480681 0.69651324 -0.8544023 -0.41019276 0.74787354 0.083389558
-0.21405096 -0.15519546 0.78162307 -0.81187201 -0.27123621 0.74409193 0.083389558
-0.2423467 -0.44906935 0.57808954 -1.2098165 -0.39697346 0.50412726 0.083389558
0.057204802 0.42329261 0.9490065 -0.2696394 0.27918425 0.98218524 0.083389558
-0.17531863 -0.00090196449 0.85984093 -0.63278461 -0.16936964 0.84146738 0.083389558
0.0062884674 0.098713577 0.97756684 -0.45457283 0.034534555 0.91432714 0.083389558
-0.25771061 0.38684499 0.85540646 -0.37166101 0.024422185 0.97283667 0.083389558
-0.3369244 0.24227585 0.80433613 -0.53834414 -0.19346283 0.91106063 0.083389558
-0.29366514 0.3355163 0.83949172 -0.43008995 -0.060566317 0.9532007 0.083389558
-0.031199621 0.0056674206 0.95750022 -0.52964514 -0.02358884 0.87712353 0.083389558
0.75111604 -0.32599154 1.4526626 -0.42965394 0.40576521 0.84416413 0.083389558
0.54218304 -0.094325058 1.2627895 -0.41601461 0.26104057 0.88733 0.083389558
0.42462748 0.48924136 1.0248616 -0.29241917 0.46562544 0.92305005 0.083389558
0.20251155 0.044616509 1.0758657 -0.41674843 0.14158241 0.91484016 0.083389558
0.80543303 -0.067656115 1.3857256 -0.46930131 0.24772957 0.85437089 0.083389558
-0.34961942 0.18381616 0.78146303 -0.60382318 -0.25983843 0.88228726 0.083389558
0.30528307 0.10191748 1.1096051 -0.38127825 0.19628155 0.92603236 0.083389558
0.40964118 -0.052938655 1.1901309 -0.4129588 0.22349447 0.8982017 0.083389558
-0.17451841 -0.13751189 0.82801169 -0.75167054 -0.20983772 0.77045876 0.083389558
-0.33352897 0.26494706 0.81077427 -0.51516753 -0.16893037 0.92100161 0.083389558
-0.19395897 0.11953749 0.86830705 -0.54747152 -0.13065423 0.89015502 0.083389558
-0.27372512 0.026876863 0.78912246 -0.69261563 -0.27657494 0.82609075 0.083389558
0.46232468 -0.33351934 1.3079591 -0.45369267 0.37258217 0.83566755 0.083389558
0.5516904 -0.57086873 1.5094343 -0.43705824 0.68037176 0.77476901 0.083389558
0.294278 0.32295081 1.0500016 -0.31298083 0.29340422 0.94950533 0.083389558
0.0049156882 0.39673886 0.94096911 -0.28944975 0.22535428 0.98139232 0.083389558
0.41555089 -0.0052201841 1.1810735 -0.40260097 0.22073835 0.90586108 0.083389558
0.55721903 0.19939516 1.187214 -0.38942882 0.27325934 0.90246624 0.083389558
0.32306096 0.32765898 1.0580446 -0.31467527 0.30480897 0.94568419 0.083389558
0.0012585005 0.3936522 0.94058716 -0.29168922 0.22037035 0.98104447 0.083389558
-0.17369838 0.40209949 0.88435894 -0.32853234 0.10963871 0.98205954 0.083389558
0.1646594 0.1972322 1.0350766 -0.36212376 0.17063884 0.94501364 0.083389558
0.013820698 0.21743476 0.97291094 -0.3851535 0.096159242 0.94688225 0.083389558
-0.29354385 -0.24113034 0.63328379 -1.0204637 -0.44560149 0.64373672 0.083389558
-0.34933794 0.18228981 0.78120542 -0.60510248 -0.26079869 0.88164622 0.083389558
-0.3368707 0.24232602 0.80437851 -0.53825986 -0.19335677 0.91109282 0.083389558
-0.0057658814 0.050486665 0.97244692 -0.4884069 0.0093334364 0.89732683 0.083389558
-0.28742576 0.041016638 0.78247422 -0.69140273 -0.28615889 0.82915896 0.083389558
0.57999939 -0.59939182 1.5513428 -0.42559928 0.73341709 0.77009124 0.083389558
0.35778081 0.39971533 1.0436704 -0.29926988 0.3687788 0.94111723 0.083389558
0.36289892 0.031235045 1.1493883 -0.39691582 0.20571344 0.91323304 0.083389558
0.29546291 0.066909194 1.1127297 -0.39284402 0.18603271 0.92060417 0.083389558
0.35176829 0.20347916 1.1040535 -0.35248333 0.24335077 0.93449366 0.083389558
0.35885459 0.15058027 1.1200838 -0.36662638 0.22607701 0.92896742 0.083389558
0.13789546 -0.034192722 1.0546192 -0.4705261 0.097701401 0.8887158 0.083389558
0.31260276 0.37818983 1.0374943 -0.29756811 0.34000409 0.94901574 0.083389558
0.13018395 0.12760381 1.0320109 -0.39900684 0.12424934 0.93091655 0.083389558
0.11132424 0.11286861 1.0256382 -0.41072485 0.10849237 0.92667663 0.083389558
0.44903475 -0.1026089 1.2214679 -0.41934946 0.24448229 0.88895404 0.083389558
-0.38551754 0.13914344 0.73927706 -0.68119949 -0.34519047 0.84990746 0.083389558
0.21012537 0.44801331 0.98182571 -0.25972843 0.37044579 0.96749949 0.083389558
-0.15102248 -0.0075094742 0.87664646 -0.61913753 -0.14462835 0.84490699 0.083389558
0.52008384 0.25267223 1.1549581 -0.37211013 0.29365107 0.90941167 0.083389558
0.29791602 0.22774246 1.0778617 -0.34315494 0.23848897 0.94194973 0.083389558
-0.40185028 0.18266168 0.74369442 -0.64930522 -0.32793805 0.86745787 0.083389558
-0.11417053 0.025876578 0.9067831 -0.56695384 -0.094416745 0.86846787 0.083389558
-0.26719341 -0.11182634 0.74091148 -0.82893175 -0.33822891 0.74824739 0.083389558
0.228071 0.37404445 1.012969 -0.29003915 0.31024984 0.96108943 0.083389558
0.38218996 -0.60333097 1.4323802 -0.51328987 0.66582972 0.7265628 0.083389558
0.46206251 -0.54509097 1.4350913 -0.47150898 0.61206979 0.76745629 0.083389558
0.35757634 0.25986454 1.0907135 -0.33803228 0.27186057 0.93759418 0.083389558
0.99603462 0.087896243 1.4715657 -0.61570668 0.14974391 0.77821422 0.083389558
0.47953859 0.22168773 1.1482402 -0.36654463 0.27587801 0.91734689 0.083389558
0.41826019 0.20818405 1.1281278 -0.35811159 0.26065037 0.92662698 0.083389558
-0.35268748 0.18262105 0.77899981 -0.6074838 -0.26465139 0.8809371 0.083389558
-0.16562395 0.40845576 0.88627905 -0.32156453 0.12228737 0.98381191 0.083389558
0.19451796 0.13331631 1.058107 -0.38344538 0.15916374 0.9332673 0.083389558
0.59538507 -0.15332766 1.3064429 -0.42257789 0.28843424 0.87646359 0.083389558
0.4822785 0.27301618 1.1332142 -0.35847142 0.30081898 0.91696578 0.083389558
-0.19924258 0.12064259 0.86521381 -0.55007952 -0.13544202 0.8895117 0.083389558
0.39912644 0.045732949 1.1616658 -0.39206585 0.21714716 0.91383624 0.083389558
0.22933461 0.42702043 0.99500096 -0.26989925 0.35707533 0.96374768 0.083389558
-0.1518154 0.012215277 0.87936175 -0.60393238 -0.13825901 0.85370892 0.083389558
-0.15441069 0.079090632 0.88732731 -0.55333227 -0.11212268 0.88184208 0.083389558
0.15357402 0.41261858 0.97886944 -0.27160928 0.31462222 0.972543 0.083389558
-0.17240982 -0.20233564 0.81171525 -0.80979985 -0.21791209 0.73299301 0.083389558
0.095367968 0.19441836 1.0084991 -0.37603393 0.13316543 0.94438088 0.083389558
-0.016962135 0.2236174 0.95972157 -0.39109281 0.079318583 0.94680911 0.083389558
0.4332433 -0.73246974 1.6140686 -0.47134438 0.94398677 0.68974954 0.083389558
0.005560644 0.43417269 0.93189716 -0.26894811 0.2617586 0.98673874 0.083389558
0.34590933 0.26228163 1.0858247 -0.336119 0.27022865 0.93927228 0.083389558
0.25859356 0.38322106 1.0191242 -0.28910398 0.32818165 0.95751852 0.083389558
0.16318879 0.030514535 1.0595728 -0.43300089 0.11853672 0.90923887 0.083389558
0.19055021 0.35815293 1.0064785 -0.29488772 0.28328809 0.96412772 0.083389558
0.25145897 0.36163449 1.0241177 -0.29620853 0.30839139 0.95734793 0.083389558
0.27582574 0.2770586 1.0571022 -0.32669872 0.25804555 0.94850695 0.083389558
-0.12927598 -0.031965159 0.88869953 -0.62183869 -0.12867154 0.83933699 0.083389558
0.48225063 -0.033701487 1.2182378 -0.40698159 0.23852129 0.89872581 0.083389558
0.071759716 0.065359987 1.0117991 -0.44698814 0.069627061 0.91123515 0.083389558
0.36403948 -0.052679017 1.1689891 -0.41792223 0.20895603 0.89824957 0.083389558
0.04854447 0.1540143 0.99367809 -0.40874597 0.086028151 0.93328327 0.083389558
0.28999668 0.011756267 1.1212761 -0.4108305 0.17837383 0.91022134 0.083389558
0.21782662 0.32754639 1.0238353 -0.30720973 0.27075106 0.95872396 0.083389558
0.34019333 0.2037843 1.0996162 -0.35173887 0.240298 0.93571347 0.083389558
0.071928486 0.37559977 0.96594268 -0.2922003 0.24330884 0.97532052 0.083389558
0.065769501 0.17231703 0.99919623 -0.39425257 0.10515954 0.93861121 0.083389558
0.17566459 0.29881498 1.0176384 -0.31920493 0.23368283 0.95929283 0.083389558
0.40859944 0.28479192 1.1016015 -0.33952802 0.29677916 0.93073928 0.083389558
0.22018215 0.55373043 0.93751556 -0.2167652 0.49095213 0.96833664 0.083389558
0.13569692 0.5163005 0.93588972 -0.22388759 0.41417629 0.98151433 0.083389558
0.31146726 0.46862733 1.0010169 -0.26739877 0.4222756 0.95015448 0.083389558
0.28581795 0.40013286 1.0213091 -0.28642324 0.35087278 0.95401365 0.083389558
0.10333678 0.049064733 1.0286413 -0.44378379 0.086156785 0.90952939 0.083389558
0.13746619 0.43307588 0.96772045 -0.2623373 0.3269501 0.97593069 0.083389558
0.13904099 0.25684428 1.0143284 -0.34005553 0.19020614 0.95536822 0.083389558
0.13696958 0.13174456 1.0343411 -0.39553723 0.12942937 0.9320513 0.083389558
0.55663115 0.53718692 1.0442708 -0.33825922 0.52619559 0.87781149 0.083389558
-0.25654501 0.065314308 0.81444085 -0.64085096 -0.23226188 0.8507508 0.083389558
-0.15050556 0.078904688 0.8897481 -0.55092794 -0.10831694 0.88257778 0.083389558
0.19191672 0.43577161 0.9814747 -0.26328504 0.3517898 0.96946532 0.083389558
0.22773086 0.017886592 1.0917288 -0.42106378 0.15088993 0.9097361 0.083389558
0.40176684 0.22505203 1.1170452 -0.35211718 0.26463005 0.92975265 0.083389558
0.13278042 0.48241234 0.9488306 -0.239621 0.37522471 0.97999364 0.083389558
0.81231475 -0.12943135 1.4081529 -0.46388659 0.26962829 0.85290295 0.083389558
0.42377228 -0.12681234 1.2160934 -0.42654145 0.2443701 0.88411075 0.083389558
0.36169535 0.54987109 0.97416914 -0.25230309 0.52426505 0.93646407 0.083389558
0.27375281 0.49828938 0.97735065 -0.24904536 0.44333029 0.95764506 0.083389558
0.045121938 0.28700021 0.97551429 -0.34061185 0.15972278 0.96213841 0.083389558
0.32221657 0.4678328 1.0044144 -0.26999795 0.42414644 0.94795597 0.083389558
0.28076142 0.53939325 0.95903969 -0.23456891 0.49232364 0.95596039 0.083389558
-0.27829379 -0.10668037 0.73092562 -0.83661693 -0.35363385 0.74665552 0.083389558
0.13461539 0.48215482 0.94937813 -0.2398144 0.37573847 0.97974223 0.083389558
0.032236662 0.50158632 0.91789699 -0.23034343 0.34824684 0.99260032 0.083389558
0.39661926 0.48079473 1.0203149 -0.28566158 0.45262891 0.93067259 0.083389558
0.19012596 0.29338261 1.0237979 -0.32075766 0.23621503 0.9576478 0.083389558
0.1970202 0.18689778 1.0494156 -0.36207443 0.18094975 0.94262964 0.083389558
-0.047659051 0.49616188 0.90081966 -0.24023986 0.29688385 0.99794167 0.083389558
-0.10287911 -0.027015507 0.90844893 -0.59839702 -0.099392802 0.84834468 0.083389558
-0.10254567 0.49350533 0.88809997 -0.25028628 0.25908047 1.0000024 0.083389558
-0.084043585 0.14486367 0.9316836 -0.46652642 -0.015383795 0.91793686 0.083389558
0.37479144 0.25576523 1.0981517 -0.34117976 0.27376601 0.93501633 0.083389558
1.0276593 0.27828681 1.462738 -0.71190292 0.15075292 0.71284425 0.083389558
0.78494614 0.46068129 1.2008301 -0.50258279 0.40267086 0.79551023 0.083389558
-0.2167941 0.058933347 0.84205651 -0.61448336 -0.18901233 0.85846418 0.083389558
-0.23239076 -0.046251211 0.80099303 -0.72418857 -0.25869617 0.80052137 0.083389558
0.22943658 0.55457461 0.93916476 -0.21801078 0.49508879 0.96652341 0.083389558
0.80440819 0.46435127 1.2115477 -0.51916724 0.39863512 0.7852273 0.083389558
0.28033382 0.28023499 1.0577832 -0.32584748 0.26142874 0.94829017 0.083389558
-0.082763717 0.14400515 0.93232 -0.46648011 -0.014769903 0.91782427 0.083389558
-0.11006196 0.1009219 0.9158892 -0.5101881 -0.059559181 0.89873099 0.083389558
0.042765513 0.21476194 0.98487377 -0.37857857 0.11293692 0.94740051 0.083389558
0.26208651 0.14962123 1.0821971 -0.36927357 0.19364357 0.93477911 0.083389558
0.25803575 0.53440517 0.9560414 -0.23181079 0.47977191 0.96077067 0.083389558
0.33588293 0.34551942 1.0563779 -0.31114694 0.32085401 0.94431144 0.083389558
-0.32777885 0.34700221 0.82480013 -0.43893591 -0.082797229 0.95242321 0.083389558
0.05259629 0.28700784 0.97815347 -0.33917406 0.16402602 0.96210301 0.083389558
0.38093203 0.38834727 1.0555902 -0.30766666 0.36401471 0.93654883 0.083389558
-0.26042452 0.06983836 0.8127622 -0.63989985 -0.23426138 0.85186362 0.083389558
0.10159598 0.50908124 0.93105346 -0.22583048 0.39087886 0.98566091 0.083389558
0.058831532 0.55796403 0.90162623 -0.19986732 0.42910492 0.99427813 0.083389558
-0.26911238 0.1207374 0.81970316 -0.60014522 -0.21194822 0.8735497 0.083389558
0.097351819 0.49586275 0.93519682 -0.23224755 0.37405518 0.98526031 0.083389558
0.6676861 -0.2395712 1.3729593 -0.42801973 0.33989295 0.86071444 0.083389558
0.17442273 0.29672685 1.0177312 -0.32012209 0.23174559 0.959126 0.083389558
0.50735766 0.56544173 1.0089933 -0.30567488 0.56046438 0.89183968 0.083389558
-0.029809542 0.061254203 0.95927382 -0.49369198 -0.0065232008 0.897466 0.083389558
0.37986273 -0.0153739 1.1675481 -0.40705043 0.21091326 0.9051519 0.083389558
0.41617632 0.22434774 1.122727 -0.35432884 0.26717895 0.9276576 0.083389558
0.27339879 0.53906775 0.95740741 -0.23309033 0.48984605 0.95754242 0.083389558
-0.026905034 0.52171826 0.89749867 -0.22306955 0.33895928 0.99970287 0.083389558
0.32448262 0.49221408 0.99380565 -0.26215869 0.45016807 0.94716305 0.083389558
0.17219372 0.19555844 1.0382677 -0.36176008 0.17344391 0.94460219 0.083389558
0.22968507 0.63010752 0.89668769 -0.18404964 0.59553403 0.96596867 0.083389558
0.36024645 0.59057719 0.94987875 -0.2369255 0.5757001 0.93481708 0.083389558
-0.36079568 0.24675368 0.79104787 -0.55119467 -0.21676496 0.90782291 0.083389558
-0.065095238 0.22458269 0.93934536 -0.40723622 0.045557059 0.94379401 0.083389558
-0.044322044 0.46269014 0.91104299 -0.25945821 0.261866 0.99313909 0.083389558
-0.22644152 0.093683697 0.84275913 -0.5917691 -0.18048252 0.87184387 0.083389558
0.80865335 0.089598827 1.3446546 -0.49037099 0.22521724 0.84538287 0.083389558
0.46937156 0.38763005 1.0863619 -0.33271334 0.3761867 0.91673625 0.083389558
0.34762836 0.50236851 0.99533057 -0.26458484 0.46643302 0.94170702 0.083389558
-0.11634365 0.26740876 0.91569591 -0.39929229 0.036074877 0.95139581 0.083389558
-0.041909624 0.24650884 0.94763041 -0.38573757 0.076604798 0.95107132 0.083389558
0.27492574 0.49840751 0.97760111 -0.24922454 0.44379908 0.95741385 0.083389558
-0.25096849 0.15388174 0.83874011 -0.55749357 -0.16888069 0.89233142 0.083389558
0.35160023 0.45821619 1.0172677 -0.2800388 0.4212327 0.94184053 0.083389558
0.36651281 0.10399223 1.1342714 -0.37854096 0.21628822 0.92319518 0.083389558
-0.050380092 0.24721743 0.94412875 -0.38811892 0.071089648 0.95075196 0.083389558
0.76581836 0.45955038 1.189576 -0.48700276 0.40824312 0.80475289 0.083389558
0.48762783 0.3145704 1.1210986 -0.3526839 0.32554978 0.91508627 0.083389558
0.22016966 0.4614138 0.97924989 -0.25535142 0.38739565 0.9664892 0.083389558
-0.21293733 0.05238305 0.84338617 -0.61714923 -0.1880333 0.85642958 0.083389558
0.29425806 0.4879539 0.98754495 -0.25695285 0.43791136 0.95356148 0.083389558
0.28489208 0.042094301 1.11308 -0.40199104 0.1786125 0.91615051 0.083389558
0.51370639 0.33875749 1.1223742 -0.35698479 0.34321055 0.90803361 0.083389558
-0.22975594 0.13475235 0.84851784 -0.5591051 -0.15881908 0.88888133 0.083389558
0.3484889 -0.039998841 1.1588753 -0.41682702 0.20210735 0.9005968 0.083389558
0.061939199 0.068976328 1.0067072 -0.4487918 0.064036287 0.91132468 0.083389558
0.19314079 0.13419257 1.057392 -0.38332817 0.15880439 0.93343097 0.083389558
0.080645442 0.4538134 0.94591731 -0.25310916 0.32128465 0.98350722 0.083389558
0.39656112 0.53794819 0.99054909 -0.26783857 0.51615798 0.9278459 0.083389558
-0.25252488 0.15518372 0.83801478 -0.55745351 -0.1696649 0.89254242 0.083389558
0.47530007 0.23282376 1.1431805 -0.36371484 0.28022602 0.91824353 0.083389558
0.021331713 0.28450948 0.96740687 -0.34690318 0.14386734 0.96159589 0.083389558
0.48538157 -0.16634548 1.2575979 -0.42633814 0.2755042 0.87694901 0.083389558
0.41301185 0.40649983 1.0589361 -0.31106421 0.38481465 0.92937183 0.083389558
0.32709536 0.69707656 0.86879098 -0.18010703 0.72511011 0.93825901 0.083389558
0.43462855 0.030226447 1.1807549 -0.39530799 0.22519222 0.90975487 0.083389558
0.058995176 0.11912366 1.0014402 -0.42361906 0.078474864 0.92498374 0.083389558
0.22881906 0.50746405 0.96177572 -0.23775284 0.43945715 0.96619916 0.083389558
-0.17997979 -0.040367171 0.84765977 -0.6703276 -0.18950498 0.82076812 0.083389558
0.54401755 0.41743234 1.1018076 -0.35582718 0.40462941 0.8944177 0.083389558
0.13083853 0.57271338 0.90921199 -0.19622238 0.48075852 0.98463589 0.083389558
-0.070521683 0.16550943 0.9384793 -0.44681877 0.0065025492 0.92614943 0.083389558
0.3272813 0.49191684 0.99472308 -0.26293603 0.4505133 0.94655579 0.083389558
0.55894607 0.53789032 1.0447426 -0.33934495 0.52695411 0.87689853 0.083389558
0.80717725 -0.06130176 1.384851 -0.47075611 0.24548374 0.85391241 0.083389558
0.3497746 0.454983 1.018164 -0.2806147 0.41765401 0.94228965 0.083389558
-0.25219774 0.087647155 0.82344407 -0.6168921 -0.21356903 0.86259055 0.083389558
-0.21342307 0.15398292 0.86157578 -0.53227991 -0.129291 0.90012151 0.083389558
-0.15218633 0.1741045 0.89769816 -0.48076785 -0.057673354 0.91820896 0.083389558
0.14176942 -0.17151186 1.0732343 -0.53263587 0.11524379 0.84254915 0.083389558
0.47084439 0.54953569 1.0065622 -0.29328263 0.53884166 0.90529978 0.083389558
0.10462748 0.12068025 1.0217707 -0.40888742 0.10723735 0.92821497 0.083389558
0.060228471 0.11806745 1.0020949 -0.42375749 0.078879565 0.92479515 0.083389558
0.48839527 0.46959683 1.0560986 -0.32160532 0.45155421 0.90658742 0.083389558
0.49375215 0.2702564 1.1386334 -0.36200863 0.30046919 0.91465276 0.083389558
0.041059148 0.28747135 0.97399718 -0.34117222 0.15768918 0.96223575 0.083389558
0.087073699 0.19473571 1.0051448 -0.37775767 0.12861806 0.94427985 0.083389558
-0.22568417 0.12996699 0.85023129 -0.560323 -0.15752113 0.88775241 0.083389558
0.00044580596 -0.016681122 0.97625142 -0.52584183 -0.0012880826 0.87447029 0.083389558
-0.042385854 0.27006432 0.94535673 -0.37187466 0.092416339 0.95675069 0.083389558
-0.036379647 0.27915484 0.94673872 -0.36472261 0.10300398 0.95911103 0.083389558
-0.23265335 0.13548204 0.84682423 -0.5604955 -0.16145472 0.88855785 0.083389558
0.018604716 0.21769011 0.9748264 -0.38363245 0.09939906 0.94715255 0.083389558
0.036587283 0.1684261 0.98715651 -0.40483642 0.084972858 0.93617779 0.083389558
0.26063925 0.11231571 1.0891204 -0.38199338 0.18187554 0.92892563 0.083389558
0.31947672 0.60137588 0.93333071 -0.21982217 0.58122075 0.94510323 0.083389558
0.42880589 0.33356076 1.0924531 -0.33280152 0.33100295 0.92726994 0.083389558
0.74348438 0.15306687 1.2906406 -0.46307206 0.24675646 0.8588168 0.083389558
-0.23261389 -0.010101404 0.81198955 -0.69009316 -0.24265595 0.81984633 0.083389558
0.67617297 0.27286732 1.2182323 -0.43203041 0.29826006 0.8677597 0.083389558
0.13821331 0.50964004 0.93925744 -0.22718242 0.40762717 0.98081887 0.083389558
0.11877948 0.27573374 1.0034218 -0.33416373 0.19196236 0.95894575 0.083389558
1.2077912 -0.052726049 1.6837734 -0.75465381 0.036130846 0.71077126 0.083389558
0.44444245 0.63831609 0.94024223 -0.2521022 0.65511203 0.90592295 0.083389558
0.053031281 0.28946811 0.97788459 -0.33784372 0.16598502 0.96254444 0.083389558
0.14966726 0.10858077 1.0430056 -0.40276819 0.12864327 0.92733961 0.083389558
0.53961724 0.40244332 1.1067225 -0.35645854 0.39193881 0.89696556 0.083389558
0.30768523 0.62779576 0.91398299 -0.2052359 0.61498052 0.94706446 0.083389558
0.34740347 0.54432333 0.97341597 -0.24993035 0.51463324 0.94032884 0.083389558
0.3178966 0.27551848 1.0721204 -0.32973564 0.27008998 0.94362688 0.083389558
0.87953961 0.81074047 0.9744879 -0.53745908 0.87890494 0.6602425 0.083389558
-0.26095712 0.39494058 0.85394955 -0.36678487 0.029977106 0.97483587 0.083389558
0.35235369 0.15207297 1.1171591 -0.36606985 0.22471516 0.92966354 0.083389558
-0.19191049 0.17356835 0.87629503 -0.50347435 -0.095121793 0.91161448 0.083389558
0.45608297 0.46236405 1.0484375 -0.31082973 0.44176811 0.91617781 0.083389558
-0.10614759 0.34505096 0.91395539 -0.34512976 0.10658391 0.97153783 0.083389558
0.033650916 0.47844505 0.92606986 -0.24261487 0.32331237 0.9901374 0.083389558
0.18394989 0.29503706 1.0213246 -0.3203505 0.2347066 0.95827711 0.083389558
-0.23117596 0.31162408 0.8662079 -0.41763586 -0.024453241 0.95316648 0.083389558
0.10862105 0.45832685 0.95156819 -0.25047901 0.3391684 0.98109519 0.083389558
-0.23764645 0.31203753 0.86337417 -0.42044845 -0.029955672 0.95255214 0.083389558
0.16282393 0.34712273 1.0010637 -0.29963765 0.2631304 0.96563756 0.083389558
0.25250638 0.60597348 0.91582245 -0.20024543 0.56913501 0.96119195 0.083389558
-0.039182171 0.35757831 0.93503898 -0.31969503 0.16330805 0.97546035 0.083389558
-0.15491898 0.22465824 0.89865303 -0.44559976 -0.026611542 0.9347384 0.083389558
0.46558377 -0.10924811 1.2311291 -0.41924605 0.25048056 0.88761783 0.083389558
-0.04972538 0.35567939 0.93187356 -0.32324612 0.15480857 0.97504866 0.083389558
0.11165885 0.59307104 0.8954047 -0.18421616 0.49911785 0.98846078 0.083389558
0.39032939 -0.049976856 1.1805171 -0.41412002 0.21727324 0.89887404 0.083389558
0.0082392441 0.25589043 0.96642327 -0.36558995 0.11632285 0.95540112 0.083389558
0.24591735 0.6042918 0.91544461 -0.19950451 0.56480426 0.96270901 0.083389558
-0.098169923 0.1224458 0.92363226 -0.48873252 -0.038674206 0.90836179 0.083389558
0.28150243 -0.094943404 1.1383806 -0.44686601 0.18166982 0.88504934 0.083389558
0.44486821 -0.070803858 1.2109582 -0.41395232 0.23608704 0.89457667 0.083389558
0.14161786 0.29386008 1.0074022 -0.32364586 0.21500106 0.96066582 0.083389558
-0.051746402 0.22099672 0.94527328 -0.40452737 0.053126425 0.9438535 0.083389558
0.39578006 0.59398335 0.95701635 -0.24826026 0.58659512 0.92458808 0.083389558
0.19466187 0.51888078 0.9483847 -0.22823133 0.44045031 0.97241324 0.083389558
-0.06860555 0.49843186 0.89510268 -0.24171579 0.28659108 0.99935549 0.083389558
-0.013093877 0.12218822 0.96719694 -0.4489255 0.029597312 0.91930842 0.083389558
0.26076949 0.6029408 0.91935444 -0.20351627 0.56751299 0.95935762 0.083389558
0.45942107 0.43636963 1.0617619 -0.31837264 0.41727403 0.91681325 0.083389558
0.59899652 -0.15531352 1.3088402 -0.42285007 0.28964224 0.87599605 0.083389558
0.34924904 0.31936824 1.069544 -0.32069522 0.30579859 0.94137615 0.083389558
-0.044618566 0.35653284 0.93342465 -0.3215462 0.15888472 0.97524399 0.083389558
-0.055211648 0.38352975 0.92539281 -0.30802569 0.17613339 0.98035467 0.083389558
0.16674288 0.40699723 0.98439014 -0.27426144 0.3150143 0.97065532 0.083389558
0.22800711 0.4281536 0.99420947 -0.26932865 0.35767728 0.96399289 0.083389558
-0.0050311554 0.53860551 0.8962521 -0.21179789 0.37172237 0.99965346 0.083389558
-0.033778142 0.14039555 0.95662737 -0.44666266 0.022249475 0.92256325 0.083389558
0.84392798 0.61817676 1.1432263 -0.55004036 0.55769825 0.72703093 0.083389558
0.036999069 0.40258178 0.94889885 -0.28217164 0.24885023 0.9808116 0.083389558
0.54252493 0.1346575 1.1996932 -0.39247552 0.25403926 0.90490949 0.083389558
0.3088198 0.031943124 1.1256162 -0.40189517 0.18702474 0.91424316 0.083389558
-0.18885447 0.17487405 0.87811065 -0.50067306 -0.091323175 0.9126206 0.083389558
0.077915654 0.28444993 0.9874925 -0.33600184 0.17637865 0.96135479 0.083389558
0.024754317 0.21552607 0.97754586 -0.3830612 0.10209101 0.94690818 0.083389558
0.20301166 0.23530972 1.0417404 -0.3427527 0.2070718 0.94958782 0.083389558
0.16104312 0.34657067 1.000661 -0.29991865 0.26193264 0.96572816 0.083389558
0.24030285 0.60269594 0.91521573 -0.19898851 0.56086624 0.96398163 0.083389558
-0.12882103 0.27219138 0.91028309 -0.40103123 0.029826803 0.95168328 0.083389558
0.90496099 0.69761091 1.125674 -0.6100356 0.64228314 0.66657782 0.083389558
0.14271376 0.60394907 0.89550656 -0.18192324 0.52696115 0.9834854 0.083389558
-0.042422123 0.33533213 0.93744367 -0.33343634 0.14238115 0.9710626 0.083389558
0.31626049 0.62934101 0.91484404 -0.20716357 0.61931783 0.94474238 0.083389558
0.055267777 0.5556618 0.90189594 -0.201047 0.42446077 0.99456823 0.083389558
-0.20482297 0.074494272 0.85362953 -0.59210819 -0.16732277 0.86852902 0.083389558
0.28130749 0.28062698 1.0580096 -0.3257651 0.26198077 0.9482165 0.083389558
0.40445334 0.20758763 1.1229768 -0.35641739 0.25763205 0.9284817 0.083389558
0.26943198 0.28372246 1.0530913 -0.32423812 0.2599518 0.9497261 0.083389558
0.10741061 0.45445329 0.95258832 -0.25232589 0.3346526 0.98090345 0.083389558
0.4689962 -0.32212302 1.3065392 -0.45052826 0.36547819 0.83947569 0.083389558
-0.18673912 0.073346891 0.86559618 -0.57996362 -0.14835767 0.87230557 0.083389558
0.13470119 0.29469231 1.0048866 -0.32391798 0.21228719 0.96111786 0.083389558
0.33992022 0.29197773 1.0749378 -0.32716849 0.28590342 0.9416576 0.083389558
0.32439566 0.60224324 0.93394363 -0.22094126 0.58356434 0.9437961 0.083389558
-0.052778397 0.38337851 0.92618412 -0.30758262 0.17757432 0.98031682 0.083389558
0.097067542 0.48214003 0.94023514 -0.23897094 0.35889304 0.9842627 0.083389558
-0.13870294 0.20951457 0.9060179 -0.44856521 -0.023034818 0.93189198 0.083389558
0.092765316 0.2166089 1.0042417 -0.36598814 0.14321493 0.94882667 0.083389558
0.043952502 0.48368573 0.92683613 -0.23930202 0.33441824 0.98977667 0.083389558
0.057914294 0.33879358 0.9700712 -0.31215665 0.20544016 0.97068661 0.083389558
0.30754778 0.16077475 1.0975757 -0.36353683 0.21378216 0.93394184 0.083389558
0.026358031 0.40299311 0.94572979 -0.28319746 0.24336326 0.98140347 0.083389558
0.027721122 0.48287663 0.92317349 -0.24061343 0.32498956 0.9910993 0.083389558
-0.24747771 0.083364889 0.82576799 -0.61700928 -0.21064481 0.86182564 0.083389558
0.28223118 0.4347111 1.0070108 -0.27385592 0.38106531 0.95544416 0.083389558
0.33706805 0.3449156 1.0569737 -0.3115072 0.32070771 0.94410181 0.083389558
-0.16875514 -0.20571513 0.8147583 -0.80877459 -0.21285106 0.73250067 0.083389558
0.33718199 0.40739018 1.0341969 -0.2927067 0.37072808 0.94510412 0.083389558
0.36329713 0.031320877 1.149542 -0.3968682 0.20584321 0.91323483 0.083389558
0.28862935 -0.0711983 1.1370785 -0.43740353 0.18131527 0.89153939 0.083389558
0.4077265 0.62167686 0.94198066 -0.24265216 0.62646878 0.91903687 0.083389558
0.20870802 0.60448492 0.90780646 -0.19181564 0.55275279 0.9707405 0.083389558
-0.23020847 0.31245878 0.86665189 -0.41652963 -0.022830822 0.95353514 0.083389558
0.41562065 0.60980892 0.95209599 -0.25024804 0.61103827 0.91751152 0.083389558
0.44884962 0.13179544 1.1610318 -0.37716308 0.24156716 0.91820151 0.083389558
0.41950467 0.66399974 0.9146049 -0.23096979 0.69052851 0.91192806 0.083389558
1.0030702 -0.095870689 1.5152897 -0.56209517 0.19420582 0.8040899 0.083389558
0.46185794 0.67913657 0.91392952 -0.24445297 0.71910369 0.89609927 0.083389558
0.97278786 -0.0038393445 1.4729177 -0.57001173 0.17625655 0.80293781 0.083389558
0.66170484 0.33258268 1.1893882 -0.42249078 0.3335129 0.8659538 0.083389558
0.15105128 0.41227847 0.97827464 -0.27172998 0.31323656 0.97278613 0.083389558
0.090755969 0.33846951 0.98064226 -0.30827454 0.22250584 0.9693141 0.083389558
0.2226961 0.2312817 1.049746 -0.34304875 0.21307446 0.94798005 0.083389558
0.52521712 0.2146284 1.1690127 -0.37869838 0.27730188 0.90878391 0.083389558
0.42248794 0.10568515 1.1568849 -0.37989801 0.23069634 0.91889834 0.083389558
0.46965104 0.55034167 1.0056962 -0.2925261 0.53972912 0.90560395 0.083389558
0.31548965 0.57437426 0.9484458 -0.22948933 0.54469621 0.9471209 0.083389558
0.33018795 0.21968293 1.0917737 -0.34678453 0.24448496 0.93808639 0.083389558
0.34847772 0.60456783 0.93823165 -0.22760604 0.59209114 0.93728429 0.083389558
0.40032515 0.64990705 0.92023444 -0.22861072 0.66633123 0.91919839 0.083389558
-0.21196425 -0.15899457 0.78252327 -0.81327462 -0.26909882 0.74264109 0.083389558
0.48029864 -0.31213716 1.3082534 -0.4466528 0.36107734 0.84313148 0.083389558
-0.1066175 0.3433353 0.91397476 -0.3463738 0.10474487 0.97112668 0.083389558
0.28750795 0.48530036 0.98693997 -0.25656727 0.43323901 0.95491797 0.083389558
0.0055089756 0.44145173 0.92992634 -0.26497638 0.26906359 0.9877153 0.083389558
0.2989721 0.46455708 0.9993034 -0.26628119 0.41487929 0.95264524 0.083389558
0.13743158 0.35357407 0.99148583 -0.29777569 0.25694385 0.96834874 0.083389558
0.088950187 0.27150303 0.9937399 -0.34045312 0.17375061 0.95895702 0.083389558
0.2014626 0.23639067 1.040946 -0.34244636 0.2069941 0.94981349 0.083389558
0.38520345 0.25284612 1.1028227 -0.34329432 0.27456859 0.9333964 0.083389558
-0.29614127 0.26873168 0.83163702 -0.48794422 -0.1256002 0.92927545 0.083389558
0.91822755 0.70207888 1.1337485 -0.62677735 0.64013869 0.65574497 0.083389558
-0.15937187 -0.017396297 0.86865681 -0.63373256 -0.15740183 0.83801967 0.083389558
0.45565948 0.1604055 1.1561548 -0.37283468 0.25040612 0.91905987 0.083389558
0.27742195 0.15560924 1.0869638 -0.36627269 0.20147341 0.93497527 0.083389558
-0.088883981 -0.16753843 0.9015286 -0.69405794 -0.10374214 0.7845934 0.083389558
0.27274308 0.23795414 1.0661923 -0.33952045 0.23523112 0.9451744 0.083389558
-0.10785305 -0.015154733 0.90636384 -0.5931077 -0.10124978 0.85236138 0.083389558
0.00031336801 0.11880949 0.97384113 -0.44540477 0.038036052 0.9197138 0.083389558
0.26495013 0.36575446 1.026948 -0.2958906 0.31605658 0.95576608 0.083389558
0.062705591 0.1507072 1.0001785 -0.40614018 0.093543746 0.93328559 0.083389558
0.39638242 0.27732322 1.0995049 -0.3391023 0.29015428 0.93258071 0.083389558
0.48783234 0.31112942 1.1223975 -0.35335568 0.32341579 0.91513175 0.083389558
0.13530838 0.48232734 0.94948155 -0.23976311 0.37622136 0.97966373 0.083389558
0.025692891 0.47242162 0.9260391 -0.24635099 0.31255987 0.99012864 0.083389558
-0.24220951 0.39422041 0.86095572 -0.35947436 0.045580886 0.97612745 0.083389558
0.4285394 -0.082096778 1.2063363 -0.41726583 0.23404719 0.89281142 0.083389558
-0.062711857 0.38057038 0.9235428 -0.31147906 0.16849315 0.97980767 0.083389558
0.68811101 0.098540254 1.2774719 -0.43719503 0.24680175 0.87632722 0.083389558
0.27976838 0.1566081 1.0876665 -0.36582297 0.20267694 0.93499756 0.083389558
0.52072668 0.13893534 1.1891239 -0.38735098 0.25318107 0.90858048 0.083389558
0.14167432 0.25416964 1.0157993 -0.34090295 0.18988708 0.95486921 0.083389558
0.14385913 0.22612678 1.0219629 -0.35279605 0.17509751 0.950284 0.083389558
0.40619689 0.65587491 0.91733295 -0.22860938 0.6762073 0.91688389 0.083389558
0.22611906 0.37429628 1.0122991 -0.28982693 0.30975804 0.96134841 0.083389558
1.0569285 -0.047382727 1.5449243 -0.61695117 0.14564805 0.77833182 0.083389558
0.12650818 0.45678413 0.95668626 -0.25134405 0.34565842 0.97898787 0.083389558
0.17893358 0.046586074 1.064765 -0.42182398 0.12966834 0.91419679 0.083389558
0.09995234 0.050684061 1.0268376 -0.44417903 0.084367089 0.90968138 0.083389558
-0.12086754 0.035384089 0.90347683 -0.56434661 -0.097543165 0.8709662 0.083389558
0.30436999 0.69269633 0.86785561 -0.17457594 0.71232247 0.94500208 0.083389558
-0.30613166 0.35292092 0.83498663 -0.4221696 -0.055284183 0.95732504 0.083389558
0.41858971 0.5518173 0.98907751 -0.27129763 0.53608882 0.92083102 0.083389558
0.16713209 0.61285257 0.89513689 -0.18081097 0.54890126 0.97909468 0.083389558
0.12574039 0.27648365 1.0056915 -0.33296734 0.19590858 0.9588306 0.083389558
0.27594545 0.67979228 0.87215912 -0.17211813 0.68404019 0.95329708 0.083389558
0.37106729 -0.16351077 1.2001256 -0.44395155 0.23884477 0.87361801 0.083389558
-0.28841797 0.026855037 0.77663678 -0.70651031 -0.29618308 0.82128 0.083389558
-0.27105573 0.32919738 0.84926051 -0.42351368 -0.045034464 0.95401192 0.083389558
0.015533801 0.45660856 0.92827833 -0.25569844 0.29027519 0.98902422 0.083389558
0.22600146 0.45969024 0.98148698 -0.25671166 0.38766792 0.96550441 0.083389558
0.32906818 0.32308054 1.061524 -0.31681335 0.30324212 0.94460386 0.083389558
0.27243924 0.16325502 1.0833693 -0.36405858 0.20233576 0.9362722 0.083389558
-0.027706735 0.38188344 0.93427849 -0.30330062 0.19212314 0.97980511 0.083389558
-0.29626313 0.17230652 0.81387299 -0.57361114 -0.20587187 0.890091 0.083389558
0.44323552 0.4624379 1.0440841 -0.30619937 0.44047332 0.91961652 0.083389558
0.29495957 0.01150766 1.1235631 -0.4101029 0.18038487 0.9102425 0.083389558
0.21701917 0.28326485 1.0353873 -0.32390332 0.24060662 0.95448828 0.083389558
0.23255076 0.42795381 0.99555492 -0.26986331 0.35905105 0.96330881 0.083389558
0.22759368 0.3594465 1.0174474 -0.29550856 0.29837617 0.96016997 0.083389558
0.058110792 0.4190644 0.95045072 -0.27171174 0.27560028 0.98162234 0.083389558
0.23316424 0.39039138 1.0090837 -0.28422749 0.32568863 0.9614048 0.083389558
0.1398661 0.27515978 1.0108658 -0.33196393 0.20192552 0.95809931 0.083389558
0.46188518 0.098638803 1.175106 -0.3844578 0.23722775 0.91427964 0.083389558
0.30260193 0.27912718 1.065773 -0.32748115 0.26773086 0.94570649 0.083389558
0.015419432 0.31109673 0.96113789 -0.33391383 0.15965728 0.96668893 0.083389558
0.16697013 0.41500235 0.98182642 -0.27084821 0.32240123 0.9712345 0.083389558
0.11935288 0.35376891 0.98587137 -0.29870111 0.24868752 0.96965784 0.083389558
0.38659024 0.70728481 0.87274772 -0.19805312 0.75443965 0.91923153 0.083389558
-0.21918477 -0.037622865 0.8153584 -0.70333809 -0.23757644 0.8096875 0.083389558
0.059318978 0.11584651 1.0018651 -0.4252165 0.077469118 0.92413795 0.083389558
0.17284821 0.56301939 0.92258543 -0.20553493 0.4853988 0.97724253 0.083389558
-0.3325268 0.0056186649 0.7274459 -0.77408928 -0.37286496 0.79350114 0.083389558
-0.19635206 -0.15934634 0.79924178 -0.79577774 -0.24574192 0.74901199 0.083389558
0.45369387 -0.090416394 1.2203207 -0.41687897 0.24258098 0.89107257 0.083389558
0.25996059 0.11190107 1.0889224 -0.38220927 0.18149281 0.92886919 0.083389558
-0.31978029 0.12294433 0.78414083 -0.63913357 -0.27168787 0.86115712 0.083389558
0.1986257 0.6005246 0.90805072 -0.19185837 0.54382586 0.97280449 0.083389558
0.51431799 0.24774195 1.154187 -0.37116796 0.29090184 0.91069412 0.083389558
0.22163819 0.53253371 0.9483214 -0.22613975 0.46587589 0.96786839 0.083389558
0.11065715 0.51897174 0.9291082 -0.22128451 0.40635177 0.9851113 0.083389558
0.13626982 0.3449569 0.99338096 -0.30163872 0.24962135 0.9674499 0.083389558
-0.1905105 -0.080997594 0.82843369 -0.7160393 -0.2161946 0.79607463 0.083389558
-0.13349105 0.33514062 0.90495199 -0.36052331 0.077574499 0.96791625 0.083389558
-0.38415986 0.16397835 0.74999982 -0.65338689 -0.32139495 0.86316019 0.083389558
0.40684077 0.1102454 1.1493011 -0.37806088 0.22804543 0.92076379 0.083389558
-0.1823563 0.023638891 0.85952264 -0.61778408 -0.16711967 0.85109651 0.083389558
-0.24068113 0.34388584 0.86263388 -0.39725107 -0.0031295419 0.96196944 0.083389558
-0.13975628 0.075978816 0.89608198 -0.54623073 -0.099086247 0.88359404 0.083389558
0.080263391 0.19485651 1.0023985 -0.37929502 0.12475435 0.94414479 0.083389558
0.15036485 0.20213309 1.0287292 -0.36218378 0.1660189 0.94605613 0.083389558
-0.27285123 -0.0077947406 0.7777465 -0.72623593 -0.29497042 0.80763966 0.083389558
-0.28049469 -0.10452101 0.72948593 -0.83688265 -0.35614508 0.74706441 0.083389558
-0.33131456 0.0026943833 0.7272554 -0.77601922 -0.37301797 0.79223019 0.083389558
1.2187617 0.62091714 1.7292454 -1.2540478 0.054350439 0.36836544 0.083389558
0.20028141 0.50785309 0.95465869 -0.2337006 0.42995825 0.97116995 0.083389558
0.45137358 -0.41975683 1.3448099 -0.46742144 0.44999003 0.80822361 0.083389558
-0.086380035 0.14231485 0.93044454 -0.46935001 -0.018639846 0.9167884 0.083389558
0.42627081 -0.4052414 1.3223357 -0.47463095 0.42510211 0.8091771 0.083389558
0.10568688 0.27533957 0.99892461 -0.33610374 0.18504606 0.95925373 0.083389558
0.24309976 0.51308054 0.96270394 -0.23773272 0.45044765 0.9636361 0.083389558
0.31783628 0.3748669 1.0403302 -0.29942244 0.33871639 0.94806212 0.083389558
0.34190804 0.095717669 1.1260511 -0.38112664 0.20725182 0.92356306 0.083389558
0.88165206 -0.013266209 1.4150268 -0.51246601 0.21408156 0.83303332 0.083389558
-0.12318199 -0.13025139 0.87713397 -0.69553584 -0.14231215 0.7926355 0.083389558
0.23945096 0.1688136 1.0693841 -0.36449346 0.1916078 0.93849295 0.083389558
-0.0036945182 0.21792777 0.96569085 -0.39015397 0.084889613 0.94613868 0.083389558
0.14827839 0.1986149 1.0285406 -0.36402601 0.1632791 0.94545114 0.083389558
-0.13478126 0.33493757 0.90448719 -0.36110574 0.076411188 0.96779466 0.083389558
0.031510249 0.33363631 0.96253181 -0.31890926 0.18656307 0.97054029 0.083389558
-0.1431911 0.33308554 0.90146804 -0.36531672 0.068311684 0.96684241 0.083389558
-0.17134635 0.22558847 0.89078319 -0.45299792 -0.040352222 0.93295074 0.083389558
0.17400733 0.19627772 1.0388292 -0.36121917 0.17463341 0.94468957 0.083389558
-0.14771581 -0.02367714 0.87630308 -0.62960482 -0.14643702 0.83824378 0.083389558
0.044823706 0.10311557 0.99605864 -0.4370347 0.063269891 0.91946495 0.083389558
-0.25622788 0.066062309 0.81488329 -0.63989478 -0.23143168 0.85120362 0.083389558
-0.26485711 0.25228286 0.8459211 -0.48308995 -0.10795969 0.92842633 0.083389558
-0.30459738 -0.30989245 0.56025499 -1.1368356 -0.50785339 0.57953763 0.083389558
0.11123895 0.10613866 1.0263807 -0.41392314 0.10624671 0.92503762 0.083389558
0.44246939 0.11153681 1.1636679 -0.38027948 0.23596054 0.91740584 0.083389558
-0.061403312 -0.34874979 0.91078722 -0.80658674 -0.037579712 0.69288951 0.083389558
0.10417852 0.19340083 1.0121466 -0.37460059 0.13757503 0.94431752 0.083389558
-0.25144163 0.15344708 0.83836174 -0.55819887 -0.16969632 0.89204514 0.083389558
-0.3626416 -0.12813792 0.61177498 -0.97728837 -0.51868308 0.69010437 0.083389558
0.31209016 -0.29732937 1.2080566 -0.4977529 0.28080586 0.82735187 0.083389558
0.202512 0.60293847 0.90746087 -0.19140939 0.54847515 0.97201848 0.083389558
0.2414242 0.28600624 1.0429533 -0.3227928 0.25155994 0.95267218 0.083389558
-0.031054595 0.3530165 0.93847436 -0.32052121 0.16458809 0.97460085 0.083389558
0.1729831 0.36469278 0.99922425 -0.29213691 0.28137004 0.96643996 0.083389558
-0.17742147 0.2650882 0.8891325 -0.42706478 -0.016022198 0.94480562 0.083389558
-0.43848705 0.12874568 0.68941104 -0.74591523 -0.43168238 0.8263672 0.083389558
0.016608432 0.16917554 0.97838533 -0.41088039 0.07214056 0.93509406 0.083389558
-0.43530318 0.12405576 0.68984056 -0.74812829 -0.43136239 0.82479376 0.083389558
-0.27266482 0.024632793 0.78926116 -0.69382966 -0.27648053 0.82524663 0.083389558
-0.25930014 0.3512837 0.85497952 -0.4001469 -0.012777361 0.96227062 0.083389558
0.32985172 -0.29775777 1.2187947 -0.49053243 0.29036856 0.82999879 0.083389558
0.177274 0.047582395 1.0638584 -0.42184564 0.12895074 0.91435039 0.083389558
-0.015719807 0.22368388 0.9602288 -0.39065734 0.080207668 0.94689554 0.083389558
-0.35431617 -0.055941649 0.67124015 -0.8719632 -0.45082349 0.74550915 0.083389558
0.21801423 -0.10169941 1.1066967 -0.4691999 0.14996321 0.87736094 0.083389558
-0.029359518 -0.40475905 0.94853324 -0.80967337 0.034895595 0.67380774 0.083389558
0.23840411 0.36253038 1.0198041 -0.29497322 0.30463678 0.9590646 0.083389558
0.20597796 0.23649096 1.0425514 -0.3420949 0.20895164 0.94959247 0.083389558
-0.0037143538 0.050842203 0.97355789 -0.48720258 0.01104764 0.89774036 0.083389558
-0.26664659 -0.09435524 0.74924344 -0.80943781 -0.32943875 0.7593857 0.083389558
0.061126929 0.25788301 0.98598313 -0.35221839 0.14958596 0.95665634 0.083389558
-0.11915465 -0.040455315 0.89493775 -0.62068367 -0.12004312 0.83809614 0.083389558
0.26907966 0.25021139 1.0618037 -0.33542886 0.24045791 0.94671929 0.083389558
0.16206284 0.30647507 1.0112728 -0.31676051 0.2329555 0.9611184 0.083389558
0.13185209 0.12601645 1.0329386 -0.39931855 0.12461627 0.93061948 0.083389558
1.27776 0.74310768 2.1392624 -1.7474009 -0.23130564 0.10129365 0.083389558
-0.34626117 -0.01589234 0.70281947 -0.81407273 -0.40910599 0.77492547 0.083389558
-0.027342051 0.52726948 0.89550263 -0.21988626 0.34534439 1.0003612 0.083389558
-0.094725639 0.34430861 0.9180792 -0.34216419 0.11415388 0.971771 0.083389558
0.1929705 0.4651272 0.97066712 -0.25109991 0.3813459 0.97078627 0.083389558
0.57286149 0.10716514 1.2207446 -0.40205488 0.25077003 0.89918989 0.083389558
-0.31908384 -0.048701998 0.71468055 -0.82005167 -0.38728279 0.76576072 0.083389558
-0.35676494 -0.14856784 0.60471398 -0.99634689 -0.52174723 0.67791843 0.083389558
-0.13851914 -0.13551694 0.8624109 -0.71422642 -0.16210848 0.7846216 0.083389558
0.11280657 -0.027939562 1.0405968 -0.47767088 0.08162909 0.88764632 0.083389558
0.23143142 -0.4326627 1.2059745 -0.58192813 0.33978832 0.75652921 0.083389558
-0.2436192 0.054214202 0.82120979 -0.64027381 -0.22305346 0.84898269 0.083389558
0.056432664 0.33623773 0.9701308 -0.31365189 0.2026118 0.97033733 0.083389558
-0.3262727 0.28844205 0.81861573 -0.48933214 -0.13906512 0.93149251 0.083389558
0.26866719 0.26044968 1.0590297 -0.33200693 0.24598576 0.94774026 0.083389558
0.24659196 0.28755608 1.0442916 -0.32230872 0.25440183 0.95233369 0.083389558
-0.34762457 -0.058668405 0.67740691 -0.8667559 -0.44116369 0.7467702 0.083389558
-0.19871221 0.099379838 0.86215311 -0.56705904 -0.14712031 0.88075304 0.083389558
-0.35260335 0.27445343 0.80186975 -0.51925671 -0.18112943 0.92109293 0.083389558
0.05490132 0.57134098 0.89498109 -0.19262177 0.44416973 0.99565208 0.083389558
-0.052851111 -0.053596169 0.94083601 -0.58245951 -0.055152621 0.84876364 0.083389558
0.28951564 0.21314296 1.0784031 -0.34759459 0.228828 0.94120866 0.083389558
0.103035 0.10525955 1.0227946 -0.41671956 0.10109648 0.92435163 0.083389558
-0.039735001 0.38271889 0.93038315 -0.30521345 0.18533219 0.98010212 0.083389558
0.14780045 0.19584721 1.0288321 -0.36529726 0.16171595 0.94495684 0.083389558
0.43645424 0.039021131 1.1793669 -0.39365938 0.22592337 0.91069973 0.083389558
-0.27550498 0.025811564 0.78726745 -0.69532329 -0.27954391 0.8249535 0.083389558
-0.088287987 0.16400535 0.92980844 -0.45585406 -0.0086226417 0.92357785 0.083389558
0.042814963 0.27363488 0.97683603 -0.34797189 0.14923497 0.95961386 0.083389558
-0.057251099 0.37538093 0.92617458 -0.31332511 0.16734809 0.97882617 0.083389558
0.44438437 0.18951043 1.1435969 -0.36574253 0.25814614 0.92204726 0.083389558
-0.035696942 0.35435864 0.93672186 -0.32077914 0.16277096 0.97485226 0.083389558
0.14797044 0.41118664 0.97776365 -0.27218565 0.31091544 0.97302181 0.083389558
0.1463666 0.34763792 0.99581975 -0.29997626 0.25629684 0.96701044 0.083389558
-0.052385621 0.24593779 0.94340253 -0.38957086 0.068801537 0.95030534 0.083389558
-0.30403489 0.31644884 0.83316952 -0.4517647 -0.089349352 0.94527316 0.083389558
-0.306952 0.31470063 0.83160013 -0.4549073 -0.093967065 0.94422793 0.083389558
