# .PCD v0.7 - Point Cloud Data file format
VERSION 0.7
FIELDS x y z normal_x normal_y normal_z curvature
SIZE 4 4 4 4 4 4 4
TYPE F F F F F F F
COUNT 1 1 1 1 1 1 1
WIDTH 91
HEIGHT 1
VIEWPOINT 0 0 0 1 0 0 0
POINTS 91
DATA ascii
0.03075432 0.10609683 0.93329066 -0.4402619 0.20427583 0.87432307 0.033836536
0.21008274 -0.057360191 1.0475725 -0.35465214 0.19533113 0.91436732 0.033836536
0.010360217 -0.10376208 0.97767842 -0.38681576 0.2385021 0.89078075 0.033836536
0.27458414 -0.19195448 1.0999866 -0.34158272 0.18443137 0.92157817 0.033836536
0.22768694 -0.052097864 1.0532787 -0.35432792 0.19245344 0.91510296 0.033836536
0.46292901 0.068332106 1.1243069 -0.38421646 0.15664831 0.90985662 0.033836536
0.14876744 0.58714157 0.96155363 -0.47661549 -0.12407925 0.87031144 0.033836536
0.018616622 0.0035314066 0.95288837 -0.41469628 0.22958693 0.88052076 0.033836536
0.12107562 0.022522645 0.99409014 -0.38433614 0.20160978 0.9009102 0.033836536
0.33289003 0.088389091 1.0677574 -0.36816886 0.15603268 0.91657269 0.033836536
-0.029644731 0.039211679 0.91941583 -0.44916722 0.23798923 0.86116779 0.033836536
0.36462417 -0.1223228 1.1204106 -0.35983157 0.18227771 0.91503882 0.033836536
0.75938118 0.31635702 1.2336107 -0.48611113 0.079683557 0.87025654 0.033836536
-0.051045228 -0.078229897 0.94245052 -0.41983628 0.25659236 0.87057328 0.033836536
1.0731817 0.13537036 1.5554266 -0.80348516 0.26255152 0.53430164 0.033836536
0.088830769 0.51199096 0.92007756 -0.50712925 -0.04720879 0.86057615 0.033836536
0.078589648 -0.044226646 0.99167848 -0.38060519 0.2193813 0.8983382 0.033836536
0.32764828 0.087389998 1.0658228 -0.36799607 0.15673204 0.91652274 0.033836536
0.34086615 0.036898203 1.0800678 -0.36446649 0.1680115 0.91593468 0.033836536
0.32626185 -0.020764275 1.0852379 -0.35921887 0.17876017 0.91597301 0.033836536
0.90298188 -0.24657294 1.4971581 -0.75513434 0.23169737 0.61326051 0.033836536
-0.13185211 -0.24440885 0.95481706 -0.40082234 0.26646137 0.87654996 0.033836536
0.27135807 0.10140125 1.0407203 -0.37154621 0.15834293 0.91481197 0.033836536
0.15606533 0.2547245 0.96731192 -0.42430499 0.11477992 0.89821535 0.033836536
0.063601702 0.28268924 0.91685975 -0.47451305 0.12094003 0.87190074 0.033836536
0.1602024 0.55009139 0.96312225 -0.46809828 -0.093587391 0.87870663 0.033836536
0.57322443 -0.32109621 1.2517668 -0.4658443 0.15774259 0.87069303 0.033836536
0.14571659 -0.12328901 1.0372957 -0.35044214 0.2072517 0.91336578 0.033836536
0.075010262 -0.20468859 1.0292041 -0.34550044 0.21436796 0.91360593 0.033836536
-0.45194051 -0.17961891 0.70646173 -0.66526145 0.41607153 0.61992878 0.033836536
1.0850959 -0.26497692 1.8796594 -0.93291366 0.2620343 0.24700236 0.033836536
-0.32074749 -0.1955909 0.82960051 -0.54248387 0.35387811 0.76189339 0.033836536
0.21225838 0.26842731 0.99157006 -0.40794918 0.097624615 0.90777028 0.033836536
-0.01803452 -0.0077858488 0.93831581 -0.42755914 0.24163958 0.87109327 0.033836536
-0.26555878 -0.16145009 0.85215092 -0.51680613 0.33378863 0.78835058 0.033836536
0.042951688 0.41971129 0.89203566 -0.52183741 0.037347168 0.85222703 0.033836536
0.047906525 -0.0555236 0.98135215 -0.38717076 0.227593 0.89347649 0.033836536
0.29436296 -0.31470123 1.1302408 -0.33792111 0.15863624 0.92770892 0.033836536
-0.032183811 0.28556576 0.85966969 -0.53764141 0.14723752 0.83021855 0.033836536
0.39068422 0.33872125 1.0630716 -0.38557455 0.038822912 0.92185956 0.033836536
0.28039682 0.27639931 1.0206459 -0.39280269 0.083964579 0.91578162 0.033836536
0.18356645 -0.043313146 1.0341814 -0.35938871 0.19839378 0.9118551 0.033836536
0.25142503 -0.018396048 1.0555409 -0.35765451 0.18595664 0.91515213 0.033836536
0.10513856 0.12047507 0.96598899 -0.41255763 0.18119146 0.89272946 0.033836536
0.18066245 0.056758091 1.0118839 -0.37742335 0.18327163 0.90772414 0.033836536
-0.098653734 -0.32089072 0.990614 -0.36226442 0.23432419 0.90214002 0.033836536
0.14800796 0.17011105 0.97633278 -0.40908498 0.15452245 0.89931768 0.033836536
0.14679742 0.38859358 0.95120531 -0.4544521 0.035616454 0.89005888 0.033836536
0.20388295 0.44390211 0.978971 -0.43692151 -0.014574198 0.89938158 0.033836536
0.27727532 0.39772463 1.0129035 -0.40716612 0.0091008106 0.9133088 0.033836536
0.17171116 0.2951223 0.97010684 -0.42638692 0.089958087 0.90005654 0.033836536
1.1443378 0.81853414 1.5430146 -0.67674071 -0.18673967 0.71214485 0.033836536
0.46472692 0.38909426 1.0928829 -0.38711986 0.0044118185 0.92201883 0.033836536
0.43411919 0.28121537 1.0846158 -0.38362706 0.070907153 0.92076188 0.033836536
0.32529733 0.24227536 1.0429723 -0.38283035 0.097037487 0.91870815 0.033836536
-0.0046704821 0.37267655 0.86534685 -0.54437768 0.084510304 0.83457232 0.033836536
0.14816539 0.44453016 0.95094246 -0.46283656 -0.0054245945 0.88642704 0.033836536
0.77023238 0.3196643 1.2394174 -0.49214107 0.080000676 0.8668316 0.033836536
1.0731817 0.13537036 1.5554266 -0.80348516 0.26255152 0.53430164 0.033836536
0.51905197 -0.26012272 1.2131277 -0.42417106 0.16863626 0.88974196 0.033836536
0.79977232 -0.49328741 1.449545 -0.71614707 0.12091465 0.68739581 0.033836536
0.9745574 -0.056111887 1.5081562 -0.76545733 0.26331726 0.58714485 0.033836536
1.1086251 -0.03400046 1.7320541 -0.88559067 0.29677159 0.35728943 0.033836536
0.24014471 -0.15605268 1.0798867 -0.34201965 0.19138998 0.9199959 0.033836536
0.66788882 0.17846715 1.2015517 -0.45447877 0.13401152 0.88061911 0.033836536
0.41539684 0.11541416 1.0967951 -0.37608764 0.14352645 0.91540056 0.033836536
0.61281151 0.11469329 1.18418 -0.43436992 0.15107574 0.88797462 0.033836536
-0.18492481 -0.19099922 0.91115081 -0.44935936 0.29635882 0.84276187 0.033836536
-0.28600878 0.14891796 0.69167864 -0.69718373 0.30591503 0.6483447 0.033836536
0.40173632 -0.49491253 1.1951391 -0.37592024 0.081716172 0.92304194 0.033836536
0.14571659 -0.12328901 1.0372957 -0.35044214 0.2072517 0.91336578 0.033836536
0.14281763 -0.038181171 1.0167943 -0.36665678 0.20522048 0.90744001 0.033836536
0.1730787 -0.27280268 1.0794611 -0.3266511 0.18325476 0.92720914 0.033836536
-0.25238571 0.18977164 0.70887256 -0.6865586 0.27672932 0.67235273 0.033836536
0.86499882 -0.029441914 1.380643 -0.64636225 0.23137058 0.72710627 0.033836536
-0.28609192 -0.027448133 0.77634275 -0.60172129 0.34438273 0.72064698 0.033836536
0.86670691 -0.030918289 1.382637 -0.6484521 0.23198286 0.72504747 0.033836536
-0.2592732 -0.25250122 0.8927393 -0.4701055 0.31500444 0.82448351 0.033836536
0.18216598 0.3741498 0.9694013 -0.4361594 0.038913865 0.89902765 0.033836536
0.31046748 -0.32220361 1.1374097 -0.34153122 0.15532443 0.926947 0.033836536
0.37349632 0.57350826 1.0669935 -0.3926208 -0.13511007 0.90972203 0.033836536
0.2656945 0.61701477 1.0257857 -0.42168152 -0.16551591 0.89150947 0.033836536
0.28259084 0.45180085 1.0159113 -0.41039884 -0.030735301 0.91138804 0.033836536
0.56422585 -0.31439587 1.2457837 -0.45868427 0.15886557 0.87428284 0.033836536
0.35182711 -0.11990317 1.1149157 -0.35735103 0.1829477 0.91587687 0.033836536
0.035414789 -0.008657014 0.96382278 -0.40438873 0.22662389 0.88606513 0.033836536
-0.019986726 0.21558906 0.88092786 -0.50508523 0.17868385 0.84437019 0.033836536
-0.30371988 -0.078399733 0.78646702 -0.58966136 0.35457626 0.72565502 0.033836536
-0.44700953 -0.17061362 0.70572209 -0.66590804 0.41466549 0.62017661 0.033836536
0.43127921 -0.49121749 1.2071303 -0.39159206 0.083392873 0.91635215 0.033836536
0.14243034 -0.037215464 1.0164194 -0.36691925 0.20520775 0.90733677 0.033836536
