# .PCD v0.7 - Point Cloud Data file format
VERSION 0.7
FIELDS x y z normal_x normal_y normal_z curvature
SIZE 4 4 4 4 4 4 4
TYPE F F F F F F F
COUNT 1 1 1 1 1 1 1
WIDTH 106
HEIGHT 1
VIEWPOINT 0 0 0 1 0 0 0
POINTS 106
DATA ascii
-0.54756325 -0.67911345 0.15643302 -0.66294122 0.26791939 0.69909096 0.10145844
-0.79506254 -0.82992911 -0.045735665 -0.52025032 -0.23588045 0.82079232 0.10145844
-0.90716279 -1.1274052 -0.15029982 -0.41060644 0.20398001 0.88870382 0.10145844
-0.558523 -1.0534149 0.33626655 -0.93314433 0.3521179 0.072489195 0.10145844
-0.57071501 -1.0822927 0.32592252 -0.92161369 0.38222611 0.067315601 0.10145844
-0.70306641 -1.1358687 0.0078559918 -0.75488061 0.28714275 0.58966458 0.10145844
-0.75433862 -1.2645172 0.71795982 -0.6982494 0.68104899 -0.22049955 0.10145844
-0.63352758 -0.66682112 0.084092721 -0.56480467 0.12520401 0.81567127 0.10145844
-0.61101961 -0.86162621 0.10756972 -0.78286743 -0.035298046 0.62118644 0.10145844
-0.64899093 -1.2169667 0.41037437 -0.7924816 0.60686785 -0.060698587 0.10145844
-0.72003281 -1.245147 0.094205014 -0.68532401 0.64369321 0.34057307 0.10145844
-0.57691026 -1.1000897 0.39438105 -0.90067589 0.43419397 -0.016079824 0.10145844
-0.56777525 -0.71410811 0.14751281 -0.69902349 0.16642784 0.69546241 0.10145844
-0.63476533 -0.69831353 0.086846672 -0.60390192 0.063514993 0.79452395 0.10145844
-0.80628157 -0.9458608 -0.085116617 -0.53665113 -0.19454022 0.82107228 0.10145844
-0.63270646 -0.74619186 0.090219989 -0.65713495 -0.0040825424 0.75376189 0.10145844
-0.64043397 -1.1610311 0.14558682 -0.85063308 0.43948397 0.28857794 0.10145844
-0.81734222 -0.65086949 -0.020851381 -0.43631384 -0.066998526 0.89729673 0.10145844
-0.51376987 -0.65028822 0.17456304 -0.63212389 0.39242554 0.66814786 0.10145844
-0.45045197 -0.68018788 0.27475157 -0.74001908 0.48932821 0.46144301 0.10145844
-0.87740868 -0.60021764 -0.046042565 -0.39201087 -0.0019278347 0.91995859 0.10145844
-1.2318765 -1.1982989 -0.19435488 -0.038459022 0.57483798 0.81736296 0.10145844
-0.60595965 -1.1544359 0.39571989 -0.86033285 0.50837314 -0.037204001 0.10145844
-0.72303116 -1.089749 -0.02950017 -0.70848751 0.12336441 0.6948573 0.10145844
-0.61386484 -1.1379027 0.1987585 -0.8859604 0.41260877 0.21172659 0.10145844
-0.98453903 -1.1809076 -0.16194694 -0.28044286 0.41283205 0.86655724 0.10145844
-0.78362089 -0.70299399 -0.0092061721 -0.482566 -0.12795179 0.86646318 0.10145844
-0.7596761 -0.68684638 0.0061512189 -0.48850662 -0.080794618 0.86881155 0.10145844
-0.746831 -0.69237423 0.012988433 -0.50095332 -0.077031717 0.86203939 0.10145844
-0.97683716 -0.3148025 -0.22919749 -0.18589677 0.78955293 0.58484918 0.10145844
-0.55772156 -0.51423448 0.05684343 -0.29603681 0.58897769 0.75197572 0.10145844
-0.50410944 -0.76182139 0.24901181 -0.84083682 0.26918593 0.46960869 0.10145844
-0.64679581 -0.69149727 0.077435009 -0.58401948 0.055742458 0.80982345 0.10145844
-0.73381132 -0.67806846 0.021487078 -0.49935523 -0.037989337 0.86556405 0.10145844
-0.64364684 -0.70444715 0.080513082 -0.60176748 0.038352635 0.79774994 0.10145844
-0.45754176 -0.70487928 0.28848836 -0.78612757 0.44540319 0.42850843 0.10145844
-0.77730465 -0.38746518 -0.10323325 -0.13500728 0.6803087 0.720384 0.10145844
-1.0077342 -0.32807386 -0.22245613 -0.2187465 0.75887924 0.61339408 0.10145844
-0.79599911 -1.1137791 -0.088170901 -0.58323926 0.1593702 0.79651308 0.10145844
-0.7541188 -1.0842541 -0.0594301 -0.65097916 0.086413041 0.75416106 0.10145844
-0.82497108 -1.0775425 -0.11228406 -0.53494787 0.043954615 0.84374094 0.10145844
-0.96992302 -1.1627465 -0.16487275 -0.31049445 0.34481728 0.88582969 0.10145844
-0.721717 -1.2978157 0.30716673 -0.66085106 0.74963504 0.036374789 0.10145844
-0.82673335 -1.0641457 -0.11380284 -0.53138685 0.0079020122 0.84709239 0.10145844
-0.66366547 -1.1978136 0.14059404 -0.80215383 0.52900475 0.27695346 0.10145844
-0.63775921 -1.1527903 0.14136045 -0.85722727 0.41743758 0.3015084 0.10145844
-0.80175465 -0.56987602 -0.016663454 -0.37443832 0.1433474 0.9161045 0.10145844
-0.61280513 -1.0376337 0.11437376 -0.88440138 0.14632037 0.44319808 0.10145844
-0.72837955 -1.1236625 -0.02643491 -0.70636106 0.22546449 0.67098427 0.10145844
-1.0454965 -1.1405364 -0.19566284 -0.24089547 0.30381206 0.92177415 0.10145844
-0.59693128 -1.1358602 0.42607325 -0.86999005 0.4896304 -0.058132373 0.10145844
-0.60168737 -1.1402909 0.27634227 -0.88730335 0.45070013 0.097786225 0.10145844
-1.1102735 -0.4218069 -0.18180722 -0.37585032 0.46655402 0.80066466 0.10145844
-0.80886501 -0.53270692 -0.0273026 -0.33312654 0.24594744 0.91023982 0.10145844
-0.5339396 -0.91746682 0.26311642 -0.93739676 0.19091482 0.29127103 0.10145844
-0.55994749 -0.70551103 0.15313013 -0.69494361 0.19674209 0.6916256 0.10145844
-0.65721542 -1.1182168 0.067078635 -0.8342762 0.28127491 0.4742021 0.10145844
-0.74037933 -1.1209613 -0.039458156 -0.68358314 0.20828451 0.6995225 0.10145844
-0.64090842 -0.74253678 0.083240181 -0.64346325 -0.013114833 0.76536465 0.10145844
-0.52508229 -0.74167311 0.20633206 -0.78989488 0.23117623 0.56799966 0.10145844
-0.56938922 -0.73049581 0.14948621 -0.72001934 0.13952424 0.67978317 0.10145844
-0.96047258 -0.39539745 -0.14140224 -0.24118128 0.58400315 0.77509475 0.10145844
-0.65341586 -0.598158 0.056931026 -0.44796702 0.2525858 0.85762811 0.10145844
-0.59181345 -0.72993207 0.12674074 -0.69118243 0.093118906 0.71665597 0.10145844
-0.80427235 -0.325946 -0.17630742 -0.087672561 0.79139817 0.60498142 0.10145844
-0.55371368 -0.55941945 0.091090329 -0.40044951 0.50185752 0.7666676 0.10145844
-0.79827839 -0.54408932 -0.020435169 -0.34597546 0.22201532 0.91159761 0.10145844
-0.693353 -0.37093475 -0.10723544 -0.083471037 0.7494421 0.65678698 0.10145844
-0.94083047 -0.35117674 -0.17528495 -0.18745196 0.71110761 0.67763394 0.10145844
-0.51018131 -0.93077648 0.41641673 -0.94280064 0.32761878 0.061586548 0.10145844
-0.86545014 -0.64765668 -0.043381609 -0.41896409 -0.096008226 0.9029128 0.10145844
-1.157552 -1.0276666 -0.24399005 -0.24385153 0.060534544 0.9679215 0.10145844
-0.94781655 -0.42389911 -0.11815874 -0.26138112 0.49854305 0.82651967 0.10145844
-0.63472074 -0.4035944 -0.063196726 -0.10612816 0.72389835 0.68169492 0.10145844
-0.89692801 -0.70812494 -0.068867303 -0.42819336 -0.20344704 0.88048834 0.10145844
-0.65350872 -0.74920839 0.072535798 -0.63396043 -0.041119833 0.77227157 0.10145844
-0.8939479 -0.56680745 -0.054119091 -0.37018362 0.073097885 0.9260782 0.10145844
-0.919047 -0.62885147 -0.065602966 -0.40129328 -0.090595901 0.91145819 0.10145844
-0.71083778 -1.0117577 -0.020693121 -0.69766074 -0.048632354 0.71477574 0.10145844
-0.63986558 -1.131713 0.11195223 -0.86023307 0.34844911 0.37226644 0.10145844
-0.54489934 -0.68485862 0.16120565 -0.67590946 0.26379931 0.68815428 0.10145844
-0.7794832 -0.63152349 -0.0017819536 -0.43721154 0.0084931338 0.89931858 0.10145844
-0.81425005 -0.64358073 -0.018881567 -0.43296835 -0.049796712 0.90003258 0.10145844
-1.5805496 -1.1235315 -0.2436613 0.042644188 0.65204239 0.75698227 0.10145844
-1.147065 -1.1899548 -0.1925002 -0.10785989 0.51107538 0.8527416 0.10145844
-1.1211668 -0.80515528 -0.19826016 -0.37495521 -0.24708554 0.89350843 0.10145844
-0.9328351 -1.0964627 -0.16703428 -0.38905254 0.11126705 0.91447133 0.10145844
-0.46770594 -0.66065526 0.23179032 -0.68634492 0.47584787 0.54999954 0.10145844
-0.49740279 -0.55948412 0.12240642 -0.41244996 0.58747768 0.69624346 0.10145844
-0.89165241 -0.68286186 -0.06099391 -0.42392337 -0.16887617 0.8898145 0.10145844
-1.1157962 -1.2333969 -0.15844546 -0.10310894 0.61775929 0.77957809 0.10145844
-0.8467105 -0.60028464 -0.032892842 -0.39566648 0.021292107 0.91814744 0.10145844
-0.68759954 -0.66957694 0.049060754 -0.52479893 0.03643328 0.85044616 0.10145844
-0.71979266 -0.66719186 0.029820215 -0.49951577 -0.00076814572 0.86630446 0.10145844
-0.97672361 -1.1828606 -0.15843438 -0.28896159 0.41711977 0.86169153 0.10145844
-0.65670615 -1.2193909 0.22957014 -0.79274189 0.59568554 0.12930226 0.10145844
-0.70135885 -0.68827635 0.040685356 -0.53227067 -0.017301833 0.8463974 0.10145844
-0.92041194 -0.61160558 -0.064816147 -0.39456397 -0.055212867 0.91720814 0.10145844
-0.69623649 -0.65102619 0.042836118 -0.49860331 0.063262999 0.8645187 0.10145844
-0.46863252 -0.62367707 0.19872144 -0.59338272 0.52966744 0.60609353 0.10145844
-0.68168801 -1.1233641 0.030861463 -0.79266346 0.26716217 0.54800457 0.10145844
-0.91225642 -1.0003644 -0.15568769 -0.43086958 -0.12694807 0.89344031 0.10145844
-0.60991681 -0.91892397 0.10642289 -0.82326794 -0.01356368 0.56749088 0.10145844
-0.83914936 -0.60545695 -0.029509362 -0.40055081 0.014812902 0.9161548 0.10145844
-1.1294945 -0.34734511 -0.25442734 -0.34226277 0.71217984 0.61290789 0.10145844
-1.024911 -1.1905024 -0.16891986 -0.22582719 0.45923743 0.85912925 0.10145844
