# .PCD v0.7 - Point Cloud Data file format
VERSION 0.7
FIELDS x y z normal_x normal_y normal_z curvature
SIZE 4 4 4 4 4 4 4
TYPE F F F F F F F
COUNT 1 1 1 1 1 1 1
WIDTH 74
HEIGHT 1
VIEWPOINT 0 0 0 1 0 0 0
POINTS 74
DATA ascii
-0.039614372 -0.082241595 0.91670293 -0.4021017 0.036059331 0.91488469 0.046737701
0.18742871 -0.038071156 1.0051538 -0.35140321 0.047156759 0.93503582 0.046737701
-0.23695758 -0.25523436 0.833767 -0.52863228 0.20349349 0.82409847 0.046737701
0.82624853 -0.33641264 1.3356264 -0.56335104 0.066316858 0.82355189 0.046737701
0.27630776 -0.01527865 1.0374099 -0.3542676 0.050473433 0.93378097 0.046737701
0.12729053 0.018436903 0.98058718 -0.34704325 0.024099611 0.93753946 0.046737701
0.99483955 -0.15347679 1.5014715 -0.77655596 -0.10579212 0.62110293 0.046737701
0.34254056 -0.76804191 1.4483726 -0.024441428 0.81877333 0.57359642 0.046737701
-0.37097764 -0.45029503 0.83420831 -0.54607111 0.55333024 0.62899286 0.046737701
0.47165152 0.067196116 1.1111605 -0.4054729 0.075065091 0.91101974 0.046737701
0.3688156 0.046881516 1.0695912 -0.36820751 0.060611926 0.92776585 0.046737701
0.32132241 0.22308774 1.034698 -0.31689662 0.13914108 0.93819845 0.046737701
-0.20548217 -0.090182692 0.83500057 -0.48915929 -0.00075921562 0.87219417 0.046737701
0.2223285 -0.062366068 1.019688 -0.35319838 0.058774505 0.93370044 0.046737701
0.30338591 -0.082920223 1.052067 -0.36023986 0.069295108 0.93028241 0.046737701
0.043062359 0.016867455 0.9488889 -0.35954875 0.0059204022 0.9331075 0.046737701
0.059964042 -0.061725631 0.95733225 -0.36913946 0.040654179 0.92848444 0.046737701
1.0638479 0.149206 1.6569486 -0.90727973 0.0044455794 0.42050415 0.046737701
0.55122572 -0.26957622 1.1763088 -0.40507343 0.14198813 0.90319151 0.046737701
-0.23862129 -0.43315277 0.91723204 -0.44463524 0.53523958 0.7182048 0.046737701
-0.034125865 0.12881002 0.92122197 -0.3465735 -0.027205886 0.93762821 0.046737701
-0.093489036 0.088032007 0.89639407 -0.37917256 -0.049989376 0.92397469 0.046737701
0.23981819 0.30134359 0.99628317 -0.26701766 0.1790015 0.94692135 0.046737701
0.021207757 0.099280708 0.94097674 -0.34320137 -0.0092178481 0.93921661 0.046737701
-0.0315344 0.037409004 0.91967756 -0.373781 -0.019635707 0.9273091 0.046737701
0.1682519 0.29705179 0.97718763 -0.2610071 0.14267133 0.95473564 0.046737701
0.1539501 0.25936049 0.9780187 -0.27723575 0.10479155 0.9550702 0.046737701
0.19016358 0.19466145 0.99516082 -0.30367693 0.076014474 0.94973791 0.046737701
0.4191322 -0.24132451 1.1161784 -0.36464596 0.15513848 0.91813147 0.046737701
0.44277805 0.14823997 1.0904889 -0.38105947 0.11395414 0.91750103 0.046737701
-0.035577632 -0.062478475 0.91782659 -0.39736417 0.023356112 0.9173637 0.046737701
0.15533651 -0.043453939 0.99332803 -0.35330865 0.045363985 0.93440628 0.046737701
-0.37068242 -0.48496684 0.86767912 -0.50532115 0.6215964 0.59855533 0.046737701
-0.25500682 -0.26140216 0.82351637 -0.54264182 0.20970571 0.81336546 0.046737701
0.26410261 -0.022621751 1.0331833 -0.3534134 0.050641295 0.9340955 0.046737701
0.31518856 -0.076781444 1.0561998 -0.36202401 0.067105122 0.92975026 0.046737701
0.50204462 -0.34714687 1.1716816 -0.35624188 0.2377481 0.90364128 0.046737701
1.0410542 0.1448357 1.6105157 -0.88809478 0.016583871 0.45936114 0.046737701
0.30838153 0.44357288 0.97089332 -0.19466491 0.38638428 0.90156132 0.046737701
0.15457033 0.44319317 0.94065422 -0.17375287 0.29983845 0.93803352 0.046737701
0.14558892 0.38938218 0.95382357 -0.20913763 0.22782569 0.95097679 0.046737701
-0.21789911 -0.19683072 0.83451211 -0.51526231 0.11853632 0.84879553 0.046737701
-0.072995372 0.084409744 0.90454382 -0.3731586 -0.041828454 0.92682415 0.046737701
-0.032172881 0.036318354 0.91939694 -0.37426746 -0.019562086 0.92711443 0.046737701
0.13613446 0.014746073 0.98396009 -0.34698284 0.026433352 0.93749893 0.046737701
0.33108091 0.24208313 1.0349636 -0.31288224 0.15849122 0.93647492 0.046737701
0.23221123 0.2313769 1.0047548 -0.29542628 0.11494052 0.94842607 0.046737701
0.18500039 0.37470433 0.96629536 -0.22056112 0.23203474 0.94737142 0.046737701
0.19416919 0.1969195 0.99625683 -0.30323929 0.078683361 0.94966042 0.046737701
0.26024231 0.15851907 1.0212909 -0.3228873 0.078642637 0.94316441 0.046737701
-0.22318755 -0.29223418 0.85316086 -0.51100022 0.26979727 0.81614226 0.046737701
0.070740595 0.098136246 0.95882481 -0.33539355 0.0064830454 0.94205582 0.046737701
0.069469824 0.29433486 0.95064014 -0.26262265 0.092865683 0.96041936 0.046737701
0.50991088 0.38635352 1.0534446 -0.31379184 0.39908379 0.86154908 0.046737701
0.77484983 0.31639576 1.229091 -0.5713805 0.35118899 0.74174833 0.046737701
0.34827164 0.27613175 1.0341794 -0.30451331 0.19722144 0.93186659 0.046737701
0.28588754 0.15497297 1.0304623 -0.32855532 0.083724312 0.94076651 0.046737701
0.58941406 -0.3217434 1.2026862 -0.40546834 0.17557436 0.89708924 0.046737701
0.22286701 -0.061208803 1.0198191 -0.35315317 0.058370471 0.93374288 0.046737701
0.37155038 -0.12469602 1.0823812 -0.37102887 0.08432354 0.9247849 0.046737701
0.45079598 0.088598624 1.1001921 -0.393895 0.082113184 0.91548026 0.046737701
0.71179932 -0.0089595243 1.2474535 -0.55943912 0.032529991 0.82823282 0.046737701
0.62467527 -0.078957953 1.1968291 -0.48658821 0.039505031 0.87273782 0.046737701
-0.41135845 -0.28417137 0.70331413 -0.6876322 0.1932143 0.69987869 0.046737701
0.24372961 -0.24018754 1.0494118 -0.34209129 0.18612397 0.92104906 0.046737701
0.74303526 0.31077436 1.2081922 -0.54266369 0.34142408 0.76742798 0.046737701
0.41958472 0.5414452 0.93733931 -0.14346941 0.57951683 0.80223238 0.046737701
0.26539943 -0.24758419 1.0589601 -0.34082794 0.19073343 0.92057431 0.046737701
-0.073235571 -0.24583998 0.92176336 -0.4219026 0.20990689 0.88200754 0.046737701
1.1116441 -0.03723048 1.7239226 -0.89930803 -0.1518535 0.41010433 0.046737701
0.50920177 -0.5120399 1.2387646 -0.26474494 0.45833704 0.84843224 0.046737701
-0.065654375 0.043923035 0.90590727 -0.38316223 -0.032127887 0.92312217 0.046737701
-0.29256159 -0.026100675 0.78673112 -0.52741659 -0.086021721 0.84524077 0.046737701
-0.23662089 -0.15704294 0.81885713 -0.52470213 0.060891312 0.84910536 0.046737701
