# .PCD v0.7 - Point Cloud Data file format
VERSION 0.7
FIELDS x y z normal_x normal_y normal_z curvature
SIZE 4 4 4 4 4 4 4
TYPE F F F F F F F
COUNT 1 1 1 1 1 1 1
WIDTH 86
HEIGHT 1
VIEWPOINT 0 0 0 1 0 0 0
POINTS 86
DATA ascii
0.45289415 0.28066528 1.0634482 -0.39332098 0.26537386 0.88027 0.045749884
0.032326188 0.22686318 0.92091703 -0.31491825 -0.018071473 0.94894671 0.045749884
0.34229839 0.043070152 1.0970811 -0.3816053 0.33300364 0.86225635 0.045749884
0.22788195 0.1178411 1.0177464 -0.3928369 0.28397593 0.87466383 0.045749884
0.26192859 0.50809968 0.98152018 -0.10671529 -0.092938781 0.98993647 0.045749884
0.3620581 -0.15253647 1.1748202 -0.28141949 0.27522239 0.91926908 0.045749884
0.38697019 -0.18740007 1.1912832 -0.23702183 0.23156275 0.94350374 0.045749884
1.0383079 0.17875527 1.4804277 -0.61562359 -0.42000598 0.6667853 0.045749884
0.10055275 0.60411602 1.0006789 0.07240136 -0.31912035 0.94494456 0.045749884
2.0244081 0.15108754 2.741482 -0.2405341 -0.95949185 0.14669275 0.045749884
0.50819474 0.43439624 1.048229 -0.38084331 0.18581256 0.90577704 0.045749884
0.35398766 0.28031921 1.0228381 -0.34546921 0.22573084 0.91087687 0.045749884
-0.025193492 0.28860292 0.9106316 -0.22757675 -0.17009105 0.95878977 0.045749884
0.3519623 0.14609672 1.0629616 -0.38455021 0.30707952 0.87053049 0.045749884
0.15400015 0.086511515 0.99333179 -0.41982883 0.26681232 0.86749923 0.045749884
0.18944988 0.35231218 0.96326482 -0.21821123 0.012401203 0.97582275 0.045749884
0.50458592 -0.19422533 1.2167469 -0.16206621 0.10663573 0.9810012 0.045749884
-0.19048499 0.017412523 0.78843009 -0.63539904 -0.11550386 0.76349652 0.045749884
0.44502154 0.45527279 1.021172 -0.30644873 0.12710521 0.94336283 0.045749884
-0.16369249 -0.57009536 1.0732586 -0.70517802 0.39290854 0.59020913 0.045749884
0.16545157 0.66108352 1.0141301 0.086910516 -0.31136301 0.94630843 0.045749884
-0.0059081987 -0.013161045 0.93177199 -0.55116767 0.22553827 0.80333471 0.045749884
0.39803553 0.33168021 1.0272007 -0.34300679 0.20851235 0.91589791 0.045749884
0.44339985 0.28091416 1.0591667 -0.388163 0.26272672 0.88334829 0.045749884
0.41887549 0.26839042 1.0522575 -0.37923652 0.26242697 0.88730592 0.045749884
0.78247797 -0.014398952 1.2765684 -0.30965307 -0.094658896 0.94612616 0.045749884
0.16001752 0.125277 0.98499727 -0.39929163 0.23673381 0.88573319 0.045749884
0.16536106 0.084533706 0.99943858 -0.4174861 0.27550173 0.86591232 0.045749884
0.25740081 0.37851849 0.97787291 -0.22699392 0.050232287 0.97259986 0.045749884
0.29207754 0.26520583 1.0035969 -0.33003056 0.20043516 0.92244542 0.045749884
0.23436025 0.2510899 0.98614645 -0.32257253 0.17076635 0.93101335 0.045749884
-0.10289375 -0.2959981 0.96562189 -0.71251625 0.3586278 0.60308105 0.045749884
0.099899277 0.35112384 0.94488752 -0.18372728 -0.085752033 0.97922975 0.045749884
0.23451185 0.39306685 0.97240257 -0.20060632 0.010735591 0.97961313 0.045749884
-0.048685525 -0.1506079 0.94705641 -0.64148676 0.3086454 0.70230532 0.045749884
0.21338284 0.63829088 1.0040295 0.04260648 -0.25971392 0.96474522 0.045749884
0.62908983 -0.27788514 1.2270247 -0.0065084076 -0.11103473 0.99379522 0.045749884
0.57172245 -0.12861693 1.222695 -0.20498809 0.088615112 0.97474468 0.045749884
0.24787831 -0.088642754 1.1079991 -0.38476032 0.35507515 0.85198659 0.045749884
0.42739531 0.17040651 1.0881488 -0.39553475 0.30462277 0.86646247 0.045749884
0.50065273 -0.47589618 1.211423 0.13217352 -0.13623779 0.98181945 0.045749884
0.73329705 0.35799009 1.2081946 -0.62569869 0.20188132 0.7534886 0.045749884
-0.16521896 -0.19557633 0.83450639 -0.79412794 0.19943577 0.57409596 0.045749884
0.23931724 0.041291382 1.0505695 -0.40595382 0.33088291 0.85189086 0.045749884
0.041019384 0.17227319 0.92544776 -0.37696502 0.062743254 0.92409992 0.045749884
0.022586862 0.057208095 0.93237042 -0.48759821 0.1802938 0.85424942 0.045749884
-0.054776527 -0.33102968 1.0375507 -0.6293264 0.39504981 0.66924131 0.045749884
0.36296088 0.037187554 1.1084107 -0.37693247 0.3296482 0.86559457 0.045749884
0.059330739 0.50551784 0.97121906 0.00066913408 -0.28116605 0.95965892 0.045749884
1.0096564 0.26903918 1.5018003 -0.745368 -0.3109546 0.58968955 0.045749884
0.16001752 0.125277 0.98499727 -0.39929163 0.23673381 0.88573319 0.045749884
0.079873703 0.05430086 0.96496707 -0.4628171 0.2403857 0.85323799 0.045749884
0.31906042 0.4487797 0.9885909 -0.20407736 0.028229594 0.97854763 0.045749884
0.25740081 0.37851849 0.97787291 -0.22699392 0.050232287 0.97259986 0.045749884
0.17629515 0.51186877 0.97539413 -0.048638389 -0.17837609 0.98275954 0.045749884
0.3053824 0.49598333 0.98635739 -0.15052919 -0.038100127 0.98787111 0.045749884
0.21574327 0.43270639 0.96992576 -0.15075548 -0.054306559 0.98707831 0.045749884
0.21664129 0.12001727 1.0120028 -0.393446 0.27680469 0.87668663 0.045749884
0.50819474 0.43439624 1.048229 -0.38084331 0.18581256 0.90577704 0.045749884
0.12004328 0.58781779 0.99416733 0.050161757 -0.29271618 0.95488274 0.045749884
0.40988213 -0.20108327 1.1997782 -0.2097102 0.19965743 0.95716172 0.045749884
0.70642638 -0.3019253 1.22133 0.048792526 -0.21257535 0.97592574 0.045749884
0.76334321 -0.16147266 1.2511753 -0.10547116 -0.1835413 0.97733742 0.045749884
0.40227494 -0.073417574 1.1635717 -0.3173466 0.28739634 0.9037115 0.045749884
0.6712054 0.16396673 1.2134467 -0.48262185 0.19038036 0.85488683 0.045749884
-0.33705264 0.12068325 0.72340667 -0.46716058 -0.49887803 0.72998744 0.045749884
0.37037587 -0.40385368 1.2219858 -0.02828656 0.056446109 0.99800485 0.045749884
0.10024101 -0.13645132 1.0521319 -0.48479232 0.37220502 0.79147953 0.045749884
0.32570949 0.15306389 1.0490197 -0.38138574 0.29841873 0.87492353 0.045749884
0.36296088 0.037187554 1.1084107 -0.37693247 0.3296482 0.86559457 0.045749884
0.023761977 0.057906359 0.93289268 -0.48651725 0.18083094 0.85475206 0.045749884
-0.0059081987 -0.013161045 0.93177199 -0.55116767 0.22553827 0.80333471 0.045749884
0.73737556 0.3615354 1.2106584 -0.63116682 0.19944613 0.74956632 0.045749884
-0.14944153 -0.25484174 0.88213933 -0.78334272 0.28066164 0.55461991 0.045749884
0.16536106 0.084533706 0.99943858 -0.4174861 0.27550173 0.86591232 0.045749884
-0.2523779 -0.13556351 0.69714773 -0.83918768 -0.065160237 0.5399242 0.045749884
-0.15251739 0.37321791 0.91558856 -0.089902073 -0.39850655 0.91274869 0.045749884
0.84534407 -0.029583512 1.2939483 -0.28333223 -0.20510164 0.93683302 0.045749884
0.27222916 0.16776673 1.0213252 -0.37373498 0.2695809 0.88749552 0.045749884
0.17127675 0.45259202 0.96593851 -0.10553721 -0.12203145 0.98689932 0.045749884
0.21713449 -0.37253392 1.1983726 -0.21716672 0.24493024 0.94490623 0.045749884
0.37437189 0.59271729 1.001657 -0.12364142 -0.0812646 0.98899388 0.045749884
0.32170129 0.67014331 1.0095005 -0.0088110454 -0.20372659 0.97898817 0.045749884
0.59730893 -0.26066068 1.2277689 -0.040229108 -0.060399801 0.99736327 0.045749884
0.98578364 0.025357552 1.3634109 -0.3647106 -0.39880243 0.84139335 0.045749884
0.30647108 -0.25348791 1.1881771 -0.2382928 0.25512135 0.93708569 0.045749884
