# .PCD v0.7 - Point Cloud Data file format
VERSION 0.7
FIELDS x y z normal_x normal_y normal_z curvature
SIZE 4 4 4 4 4 4 4
TYPE F F F F F F F
COUNT 1 1 1 1 1 1 1
WIDTH 174
HEIGHT 1
VIEWPOINT 0 0 0 1 0 0 0
POINTS 174
DATA ascii
-0.53292876 -0.47179592 0.19226241 -0.6132285 0.38305563 0.69081056 0.079643108
-0.9013055 -0.63520551 -0.10011216 -0.70461208 0.35231763 0.61594975 0.079643108
-0.73018354 -1.12986 0.039219864 -0.67685348 -0.0022052662 0.73611444 0.079643108
-0.5532434 -0.82944268 0.21077774 -0.57151806 -0.097141348 0.8148194 0.079643108
-0.53339201 -0.50373876 0.2072721 -0.6089896 0.30404502 0.73259014 0.079643108
-0.39475617 -0.48711863 0.30371624 -0.52830505 0.24329276 0.81345093 0.079643108
-0.56389642 -1.2223141 0.23900808 -0.7072742 0.40358829 0.5804134 0.079643108
-0.26092365 -0.976942 0.41113654 -0.54932296 0.22507934 0.80472577 0.079643108
-0.8578406 -0.64026141 -0.049433995 -0.70062572 0.28649363 0.65348685 0.079643108
-0.16636667 -0.83352315 0.44046885 -0.4338398 0.089020446 0.89658147 0.079643108
-0.54714632 -0.64393592 0.22597039 -0.58073092 0.039826546 0.81312078 0.079643108
-0.48632064 -1.019998 0.24930865 -0.62907904 0.063718081 0.7747255 0.079643108
-0.79799253 -1.1036447 -0.019694081 -0.65262032 -0.081109673 0.75333124 0.079643108
-0.86244678 -1.0956812 -0.073467687 -0.63655758 -0.11862731 0.76205117 0.079643108
-0.82431734 -0.64699507 -0.011836717 -0.6931563 0.23240122 0.68229324 0.079643108
-0.41131777 -0.56905264 0.30990219 -0.51879764 0.10038619 0.84898269 0.079643108
-0.60326695 -0.63646543 0.18364431 -0.61124164 0.077254087 0.78766459 0.079643108
-0.55298287 -0.63786387 0.22143646 -0.58523685 0.050979104 0.80925828 0.079643108
-0.35507947 -0.519108 0.33567041 -0.49304602 0.16099535 0.85497725 0.079643108
-0.59051639 -0.69580221 0.19545384 -0.59047782 -0.01207397 0.80696356 0.079643108
-0.49697948 -0.50940853 0.2384937 -0.58737582 0.26225978 0.76564312 0.079643108
-0.70500487 -0.65513605 0.10219747 -0.65165824 0.1078889 0.75080055 0.079643108
-0.6326797 -0.61389238 0.15697663 -0.63221073 0.13667354 0.76264668 0.079643108
-0.61139297 -0.5011552 0.13576846 -0.64512545 0.38111755 0.66224056 0.079643108
-0.35372326 -1.0983524 0.38696614 -0.62764579 0.38785595 0.67500263 0.079643108
-0.26971027 -1.2372748 0.66863501 -0.49453491 0.8091861 0.31725875 0.079643108
-0.36310247 -0.5998494 0.34045416 -0.4831984 0.045946546 0.87430441 0.079643108
-0.77654672 -0.69396478 0.044032786 -0.66547567 0.087494835 0.74127376 0.079643108
-0.64034092 -0.69611764 0.15793541 -0.6122514 0.0051210024 0.79064655 0.079643108
-0.88017756 -1.1593319 -0.096804939 -0.65246248 -0.075146303 0.75408602 0.079643108
-0.48853731 -1.0709549 0.25449389 -0.65520966 0.14953485 0.74049962 0.079643108
-1.0526959 -1.0947939 -0.22398572 -0.59040612 -0.15554385 0.79197651 0.079643108
-1.0058593 -1.226669 -0.20937824 -0.62907636 -0.074499391 0.77376533 0.079643108
-0.75992727 -1.0735449 0.016439663 -0.6480459 -0.085798226 0.75675309 0.079643108
-0.47818279 -0.47066873 0.23765445 -0.58457589 0.33945188 0.73691481 0.079643108
-0.57639968 -1.1561151 0.19247925 -0.69974101 0.21890756 0.68003088 0.079643108
-0.64369339 -1.3170209 0.21614447 -0.7060712 0.53561729 0.46322519 0.079643108
-0.68068302 -0.65666735 0.12317363 -0.64102554 0.088272221 0.76242656 0.079643108
-0.67606157 -1.1141443 0.088834137 -0.67725384 0.023760555 0.73536569 0.079643108
-0.7101627 -0.98508894 0.0698523 -0.62411278 -0.11747015 0.77245319 0.079643108
-0.97152185 -1.1821593 -0.17633869 -0.62889415 -0.10048896 0.77096963 0.079643108
-0.80036271 -1.0492624 -0.014324528 -0.63487083 -0.12125558 0.763044 0.079643108
-0.54450876 -0.74556375 0.22546758 -0.56474924 -0.06463553 0.8227275 0.079643108
-0.7125141 -1.2583005 0.080836415 -0.73121321 0.27308589 0.62510103 0.079643108
-0.63418031 -1.1600332 0.13459764 -0.70238984 0.15205498 0.69536167 0.079643108
-0.86162186 -0.6499359 -0.049395025 -0.69991261 0.26623353 0.6627534 0.079643108
-0.52483374 -1.0519425 0.22004484 -0.6493597 0.075539909 0.75672036 0.079643108
-0.43057683 -0.55517465 0.29596147 -0.5343067 0.13087928 0.83509696 0.079643108
-0.62839967 -1.0360041 0.13166794 -0.64367521 -0.036619775 0.76442212 0.079643108
-0.21728356 -1.0005655 0.44946718 -0.54168385 0.32538101 0.77505213 0.079643108
-0.66429102 -0.71221542 0.13923261 -0.61807406 -0.0061967229 0.78609544 0.079643108
-0.73645192 -0.68688011 0.078679435 -0.65370649 0.071529314 0.75336003 0.079643108
-0.61458302 -0.71724176 0.17714253 -0.59668809 -0.029084748 0.80194598 0.079643108
-0.31778616 -1.2308387 0.58109963 -0.54332733 0.75401402 0.36913174 0.079643108
-0.14026479 -0.96051657 0.48320067 -0.48870677 0.32226393 0.81074756 0.079643108
-0.2719979 -0.59038526 0.3866491 -0.42695826 0.045102805 0.90314585 0.079643108
-0.48623455 -0.63883096 0.26753902 -0.54923671 0.026602039 0.83524328 0.079643108
-0.6275866 -0.67834955 0.16747415 -0.61124033 0.024174873 0.79107571 0.079643108
-0.59186071 -0.70292246 0.19433048 -0.58969194 -0.019753577 0.80738664 0.079643108
-0.69021195 -0.67020661 0.11658034 -0.64083111 0.070454843 0.76444203 0.079643108
-0.52124238 -0.69316739 0.24421029 -0.55887884 -0.025335915 0.82886219 0.079643108
-0.4534286 -0.7235986 0.2865243 -0.5259676 -0.051748838 0.84892881 0.079643108
-0.50681132 -0.516514 0.23331717 -0.59140968 0.25333878 0.76554167 0.079643108
-0.39084491 -1.040499 0.33081859 -0.62170148 0.20476502 0.75601488 0.079643108
-0.53631103 -0.34000751 0.052747346 -0.58027434 0.70659477 0.40497601 0.079643108
-0.5613395 -0.51993436 0.19032884 -0.62041682 0.28833333 0.72934687 0.079643108
-0.83017695 -1.102809 -0.047258876 -0.6456567 -0.099150561 0.75716352 0.079643108
-0.63118523 -0.38070178 -0.017771592 -0.60493571 0.69897264 0.38143164 0.079643108
-0.74370211 -0.771604 0.07353548 -0.63077903 -0.046285708 0.77458084 0.079643108
-0.62216973 -0.53496683 0.14259101 -0.64631689 0.30546227 0.6992619 0.079643108
-0.51176274 -1.264698 0.34984291 -0.66459477 0.59456843 0.45255068 0.079643108
-0.33792895 -1.0601523 0.38179451 -0.61274648 0.31506473 0.72475922 0.079643108
-0.98773509 -1.152071 -0.18488501 -0.61543959 -0.12811047 0.77770293 0.079643108
-0.43824738 -0.54074836 0.28845415 -0.54287839 0.16044503 0.82434243 0.079643108
-0.86170882 -0.65141141 -0.048898812 -0.69969726 0.26261806 0.66442114 0.079643108
-0.69986856 -0.67575264 0.10896159 -0.64305925 0.066961035 0.76288337 0.079643108
-0.82852268 -1.0235801 -0.033104297 -0.62621307 -0.14016405 0.7669493 0.079643108
-0.72311753 -0.74670959 0.091443248 -0.6307165 -0.025346493 0.77559924 0.079643108
-0.57910186 -0.50289178 0.16711158 -0.63160956 0.34603292 0.69377989 0.079643108
-0.59324121 -0.55264121 0.17489655 -0.62940687 0.23788297 0.73976934 0.079643108
-0.38523462 -0.58948213 0.32731411 -0.49842539 0.06334497 0.86461526 0.079643108
-0.3772375 -0.51767612 0.32232186 -0.50851154 0.17339505 0.8434158 0.079643108
-0.84925556 -0.56455016 -0.088060729 -0.69228226 0.47889349 0.53982061 0.079643108
-0.78173244 -0.67155164 0.035894863 -0.67451298 0.13596824 0.7256341 0.079643108
-0.87118983 -0.66535401 -0.053582933 -0.6987713 0.23863116 0.67436928 0.079643108
-0.88910884 -0.68629074 -0.065101258 -0.69712132 0.20773572 0.68619806 0.079643108
-0.95061308 -1.0849581 -0.14339502 -0.61494166 -0.14837554 0.77448785 0.079643108
-0.59806544 -0.61281806 0.18480706 -0.61543483 0.11604235 0.77959871 0.079643108
-0.45695466 -0.71190447 0.28500482 -0.52741545 -0.045105096 0.84840935 0.079643108
-0.87311465 -0.67428154 -0.05255219 -0.69718653 0.21905944 0.68260086 0.079643108
-0.45240828 -0.69136912 0.28874937 -0.52562994 -0.031113636 0.85014415 0.079643108
-0.2839008 -0.51913786 0.37397733 -0.44368821 0.13549577 0.88587904 0.079643108
-0.50923634 -0.73111707 0.25029695 -0.55061942 -0.056652963 0.83283174 0.079643108
-0.61318684 -1.1769513 0.16083035 -0.70891404 0.21676096 0.67115986 0.079643108
-0.35372326 -1.0983524 0.38696614 -0.62764579 0.38785595 0.67500263 0.079643108
-0.28444776 -0.87995595 0.38096493 -0.5060007 0.053829156 0.86085176 0.079643108
-0.34101629 -0.74769908 0.35048059 -0.47812963 -0.040377762 0.87736064 0.079643108
-0.35341999 -1.063751 0.37015361 -0.61953729 0.30342841 0.7239508 0.079643108
-0.53927803 -0.34892625 0.063600615 -0.58589095 0.69034833 0.42444199 0.079643108
-0.70764548 -1.1071413 0.060001764 -0.66982478 -0.013909969 0.7423889 0.079643108
-0.76243198 -1.0518368 0.017029716 -0.64026123 -0.10348594 0.76115453 0.079643108
-0.64068478 -0.74284023 0.15631862 -0.60229218 -0.048446264 0.79680431 0.079643108
-0.3966718 -0.5430491 0.31520191 -0.51527977 0.13700917 0.84599954 0.079643108
-0.36864889 -0.66412103 0.33843711 -0.48251125 -0.013008351 0.87579316 0.079643108
-0.2370162 -0.56513613 0.40113959 -0.40580574 0.067550443 0.91145962 0.079643108
-0.39985704 -0.67232889 0.32069764 -0.49922037 -0.018707136 0.86627311 0.079643108
-0.55021352 -0.64214969 0.22368209 -0.58274961 0.043577306 0.81148255 0.079643108
-0.76328218 -0.67633468 0.053622399 -0.66680509 0.11101885 0.73691642 0.079643108
-0.60105705 -0.66958326 0.18743965 -0.60126138 0.025202379 0.79865485 0.079643108
-0.58001179 -0.67197001 0.20312239 -0.59068936 0.013850732 0.80678016 0.079643108
-0.86657935 -1.0654244 -0.071827859 -0.62862855 -0.13580815 0.76575601 0.079643108
-0.24065305 -0.94018489 0.41538864 -0.52240634 0.17736812 0.83404565 0.079643108
-0.34555855 -0.66126388 0.35098112 -0.4698225 -0.010629092 0.88269693 0.079643108
-0.56288612 -0.69492316 0.21536914 -0.57808727 -0.018582247 0.81576329 0.079643108
-0.48900157 -0.44761732 0.2167595 -0.59351432 0.40593889 0.69494921 0.079643108
-0.5917412 -1.1325551 0.17089653 -0.6910013 0.14799896 0.70754051 0.079643108
-0.64626122 -1.133075 0.11821915 -0.68938112 0.085405178 0.71934664 0.079643108
-0.5427984 -0.74654025 0.22656342 -0.56402707 -0.065340362 0.82316715 0.079643108
-0.58049369 -0.7209596 0.20186774 -0.58181053 -0.040853117 0.8122977 0.079643108
-0.67307562 -0.59368414 0.11729252 -0.65607184 0.21132776 0.72450691 0.079643108
-1.0314127 -1.1922201 -0.22537707 -0.60818607 -0.11574703 0.78531033 0.079643108
-0.86994469 -0.68154544 -0.047133613 -0.69480121 0.1984452 0.69128197 0.079643108
-0.60336822 -0.71971059 0.18533483 -0.59158438 -0.034604512 0.80550015 0.079643108
-0.75950789 -1.1065772 0.013712184 -0.66113824 -0.053801585 0.74833256 0.079643108
-0.63480371 -1.309848 0.22140627 -0.70598608 0.53001815 0.46974924 0.079643108
-0.61117727 -0.67037457 0.17980142 -0.60580367 0.028371593 0.79510814 0.079643108
-0.86937064 -0.56620723 -0.11271802 -0.69071001 0.49955574 0.52284199 0.079643108
-0.38316381 -0.70364344 0.32918489 -0.4915809 -0.036794975 0.87005419 0.079643108
-0.3559632 -0.66001242 0.34541455 -0.47553506 -0.010021607 0.87963969 0.079643108
-0.17639464 -0.58736897 0.42789498 -0.36646429 0.046745602 0.92925709 0.079643108
-0.6164732 -1.1236644 0.1454812 -0.686571 0.10147866 0.71994609 0.079643108
-0.47198921 -0.92993075 0.25878945 -0.58249712 -0.029685527 0.81229049 0.079643108
-0.60342801 -0.69828707 0.18590559 -0.59571302 -0.011000509 0.80312204 0.079643108
-0.8640275 -0.69308805 -0.038248032 -0.69032562 0.16601995 0.70419306 0.079643108
-0.75039274 -0.67916769 0.065577298 -0.66133112 0.095614605 0.7439751 0.079643108
-0.78503513 -0.66839105 0.032197777 -0.67655385 0.14547952 0.7218799 0.079643108
-0.84910607 -0.62690848 -0.046143621 -0.7006135 0.3108359 0.64227855 0.079643108
-0.71160126 -0.61119831 0.086963646 -0.66704643 0.2056164 0.71608025 0.079643108
-0.65267026 -1.2000662 0.12610471 -0.71701944 0.216334 0.66263318 0.079643108
-0.79152113 -0.63168114 0.01604276 -0.68819863 0.23503673 0.68639666 0.079643108
-0.88383877 -0.68487674 -0.060179658 -0.69655854 0.20539829 0.68747199 0.079643108
-1.1198673 -1.0061635 -0.25775442 -0.59137368 -0.11396024 0.79830456 0.079643108
-1.0063785 -1.0095886 -0.17219393 -0.60641372 -0.14633353 0.78156823 0.079643108
-0.20377362 -1.1178032 0.54472935 -0.53825444 0.62827063 0.56174564 0.079643108
-0.86482942 -1.1035483 -0.076665625 -0.63821304 -0.11448119 0.76130033 0.079643108
-0.70525128 -0.52294677 0.051812198 -0.67343962 0.42146051 0.60733032 0.079643108
-0.54492021 -0.92374998 0.20608632 -0.59272957 -0.075224578 0.80188084 0.079643108
-0.78173244 -0.67155164 0.035894863 -0.67451298 0.13596824 0.7256341 0.079643108
-0.57972866 -0.5189566 0.1739962 -0.62965983 0.306555 0.71382952 0.079643108
-0.75435674 -0.64273357 0.055297773 -0.67402381 0.17351696 0.71804166 0.079643108
-0.50434053 -0.94635659 0.23450992 -0.59537309 -0.036789767 0.80260664 0.079643108
-0.50221694 -0.89164066 0.23978917 -0.57365674 -0.070719682 0.81603718 0.079643108
-0.60328329 -0.7631622 0.1824633 -0.58593106 -0.072052956 0.80715126 0.079643108
-0.63166636 -1.1368982 0.13280925 -0.69214493 0.10893851 0.71348989 0.079643108
-0.70444143 -0.69353467 0.10637314 -0.63933742 0.040280983 0.76787049 0.079643108
-0.49433622 -0.55495298 0.25275582 -0.57394677 0.1639919 0.80230403 0.079643108
-0.23561941 -1.0983104 0.4956868 -0.56479764 0.54303771 0.62138045 0.079643108
-0.28366825 -0.92283982 0.38547406 -0.52862513 0.10894503 0.84183514 0.079643108
-0.70201027 -0.62498093 0.099281758 -0.65957165 0.16676237 0.73290896 0.079643108
-0.64728868 -0.50265366 0.1005036 -0.65723699 0.41335103 0.63022256 0.079643108
-0.57621109 -0.69202554 0.20589988 -0.58472419 -0.011884538 0.81114507 0.079643108
-0.43813509 -0.68588346 0.29768297 -0.51869237 -0.027629657 0.85451436 0.079643108
-0.60634869 -0.54285735 0.16010845 -0.6378634 0.27192265 0.72054726 0.079643108
-0.83360773 -0.59659702 -0.045366794 -0.69891989 0.37269536 0.61041719 0.079643108
-0.49774143 -0.61682743 0.25872242 -0.5601567 0.060131978 0.82620132 0.079643108
-0.88734376 -1.1190346 -0.097829252 -0.63714242 -0.11327043 0.76237744 0.079643108
-0.86571544 -1.1614343 -0.084407203 -0.65768123 -0.064167425 0.75055844 0.079643108
-0.85647821 -0.67097402 -0.036691293 -0.69473863 0.20910101 0.68819696 0.079643108
-0.0049707685 -1.255942 1.2169511 -0.26952934 0.95331168 0.1362011 0.079643108
-0.35986099 -0.59171259 0.34177452 -0.48223332 0.054950077 0.87431777 0.079643108
-0.69311404 -0.74745035 0.11548925 -0.62027586 -0.037703399 0.78347707 0.079643108
-0.3597047 -0.58111393 0.34111506 -0.48366779 0.068131886 0.87259585 0.079643108
-0.39084491 -1.040499 0.33081859 -0.62170148 0.20476502 0.75601488 0.079643108
-0.98388326 -0.85756963 -0.13438272 -0.64917374 -0.030401615 0.76003236 0.079643108
