# .PCD v0.7 - Point Cloud Data file format
VERSION 0.7
FIELDS x y z normal_x normal_y normal_z curvature
SIZE 4 4 4 4 4 4 4
TYPE F F F F F F F
COUNT 1 1 1 1 1 1 1
WIDTH 56
HEIGHT 1
VIEWPOINT 0 0 0 1 0 0 0
POINTS 56
DATA ascii
-0.41530272 -0.44130683 0.94329882 -0.52216262 0.26809719 0.80961108 0.045819774
0.10763445 -0.28902364 1.1300955 -0.26969025 0.18310528 0.94537801 0.045819774
0.75663853 -0.31645885 1.4261597 -0.54856473 0.66262919 0.50990123 0.045819774
-0.017801268 -0.29199994 1.0927588 -0.30384797 0.15314993 0.94033056 0.045819774
-0.2654157 -1.1406204 1.2800597 0.10316613 0.46759742 0.87790054 0.045819774
0.41501626 -0.41692334 1.2670916 -0.39526081 0.31407145 0.863208 0.045819774
0.40542179 -1.1320517 1.4591498 -0.666237 0.16870044 0.72640789 0.045819774
0.14831987 -1.0545321 1.2937897 -0.31822741 0.21544404 0.92320919 0.045819774
0.035801467 -0.03387817 1.0622581 -0.20825514 0.19027154 0.95938861 0.045819774
0.30507988 0.19152816 1.0045028 0.14138727 0.41169503 0.90028709 0.045819774
0.014537968 -0.032251079 1.0571684 -0.22236323 0.18155971 0.95790952 0.045819774
0.54180557 -0.42793262 1.3412945 -0.50356621 0.40844798 0.76130897 0.045819774
-0.17869477 -0.024890957 0.99448252 -0.38582075 0.1259443 0.91393673 0.045819774
0.015927885 -0.061407063 1.062976 -0.23210937 0.17810693 0.95624429 0.045819774
0.37431055 -0.20239939 1.1726915 -0.19582585 0.35695556 0.91336465 0.045819774
0.35401642 0.1198044 1.0312818 0.1106071 0.43214116 0.89499724 0.045819774
0.29390007 0.086610936 1.0510352 0.040276647 0.37818485 0.9248535 0.045819774
0.3080329 0.1398657 1.0273324 0.097567998 0.40207312 0.91039425 0.045819774
0.27108538 0.28186682 0.96957725 0.19072571 0.40734324 0.89313781 0.045819774
0.23894013 0.25682202 0.98642755 0.14244358 0.38044012 0.91376972 0.045819774
0.24248718 0.22132669 1.0005423 0.11645352 0.37457389 0.91985488 0.045819774
0.3682808 0.14342013 1.0175552 0.14281636 0.4479349 0.88258588 0.045819774
0.051960312 0.2888014 0.98870808 -0.018769678 0.26710415 0.96348488 0.045819774
0.25488377 -0.092996873 1.1140343 -0.12841925 0.29984537 0.94530487 0.045819774
0.17884032 0.10996685 1.04387 -0.022491079 0.30246153 0.95289618 0.045819774
0.45025319 0.17304203 0.98318142 0.226337 0.51259947 0.82825923 0.045819774
0.40262097 -0.65928692 1.3383876 -0.53732651 0.2323608 0.81073344 0.045819774
0.41501626 -0.41692334 1.2670916 -0.39526081 0.31407145 0.863208 0.045819774
0.28249559 -0.71300817 1.2819612 -0.44364125 0.18729804 0.87641424 0.045819774
-0.025605494 -0.0040822476 1.0422639 -0.24260418 0.16949676 0.95520365 0.045819774
0.57027203 -2.2379928 3.2621741 -0.99097198 0.012032731 -0.13352813 0.045819774
0.20313108 -0.73345768 1.2492162 -0.38645214 0.17620353 0.90532154 0.045819774
0.054509182 0.030883946 1.0524328 -0.16564068 0.21044666 0.96347046 0.045819774
0.91130841 -0.26623458 1.5855408 -0.62561452 0.75348127 0.2021694 0.045819774
0.048128746 -0.062471125 1.070644 -0.21190445 0.19109966 0.95842445 0.045819774
-0.1508425 -0.08072754 1.0136917 -0.36462903 0.13156234 0.92181182 0.045819774
-0.1059276 -0.61364305 1.1199423 -0.29620343 0.19527522 0.93494982 0.045819774
-0.056339882 -0.27254939 1.076896 -0.3176187 0.1480376 0.93659127 0.045819774
-0.094266653 -0.46768063 1.0958266 -0.32510775 0.16514522 0.93114555 0.045819774
-0.45995519 -1.1066453 1.2945077 0.19756092 0.59534186 0.77880532 0.045819774
0.22845708 -0.16655427 1.1314543 -0.18729413 0.26308849 0.94641709 0.045819774
-0.83644408 -1.1705893 1.5759153 0.45218679 0.75113028 0.48096815 0.045819774
0.18645296 0.18796603 1.0178802 0.042158201 0.32785204 0.94378799 0.045819774
0.18931969 -0.0050042635 1.0795714 -0.096848026 0.27948779 0.95525235 0.045819774
0.1302775 -0.066834301 1.0877678 -0.16709884 0.22989471 0.95876294 0.045819774
0.25267357 -0.022897236 1.0909011 -0.075769663 0.31772891 0.94514936 0.045819774
0.27238348 -0.13368028 1.1295924 -0.15322502 0.30066735 0.94134015 0.045819774
0.30866793 -0.16935502 1.1476309 -0.17302936 0.31632575 0.93273729 0.045819774
0.33821636 -0.024741147 1.0966997 -0.036917116 0.38242882 0.92324716 0.045819774
0.38081938 -0.67792809 1.3293928 -0.52318656 0.21976213 0.82339567 0.045819774
-0.32192045 -0.19501434 0.9442541 -0.5264563 0.14602312 0.83756852 0.045819774
0.80390942 -0.20352294 1.3093338 -0.31537369 0.78322291 0.5358184 0.045819774
0.30234638 0.10893294 1.041243 0.065818295 0.39026335 0.91834766 0.045819774
0.40507823 -0.42047408 1.2638427 -0.39207119 0.30586326 0.86759889 0.045819774
0.17509896 -0.45838779 1.1845437 -0.3210637 0.18565811 0.92868143 0.045819774
-0.49123728 -1.2696834 1.4426328 0.37528974 0.61960047 0.68938589 0.045819774
