# .PCD v0.7 - Point Cloud Data file format
VERSION 0.7
FIELDS x y z normal_x normal_y normal_z curvature
SIZE 4 4 4 4 4 4 4
TYPE F F F F F F F
COUNT 1 1 1 1 1 1 1
WIDTH 86
HEIGHT 1
VIEWPOINT 0 0 0 1 0 0 0
POINTS 86
DATA ascii
-0.21863407 -0.31018302 0.79047233 0.60062438 -0.018352542 -0.79932064 0.063344009
-0.064780958 -0.01536961 0.76290172 0.18659908 -0.51157105 -0.83873469 0.063344009
0.22172342 -0.14453495 0.89382833 0.25089714 -0.3138935 -0.91570818 0.063344009
0.20085768 -0.73422205 1.1115953 0.035622679 -0.59854227 -0.80029881 0.063344009
-0.11058169 -0.1981464 0.82766676 0.32358122 -0.25864923 -0.91016251 0.063344009
-0.11897631 -0.24059661 0.83555007 0.36465383 -0.2154195 -0.90588188 0.063344009
0.17467393 -0.024584914 0.82675487 0.26337838 -0.48112455 -0.83615249 0.063344009
0.082716987 -0.087377839 0.83539194 0.20568551 -0.42128968 -0.88329411 0.063344009
0.10830967 0.088515475 0.71621156 0.18284015 -0.72540939 -0.6635893 0.063344009
0.012661082 0.21665388 0.47959465 -0.028973451 -0.93776911 -0.34604865 0.063344009
-0.30613288 -0.24614671 0.71948528 0.6799466 0.076011173 -0.72931123 0.063344009
0.039454821 -0.035736833 0.79814959 0.19144353 -0.49533468 -0.84734464 0.063344009
0.16778478 0.16426349 0.62434793 0.163247 -0.88237071 -0.44133016 0.063344009
0.097591318 0.091793433 0.7097187 0.17169744 -0.7332049 -0.6579746 0.063344009
-0.26746532 -0.16308048 0.74653906 0.51445329 -0.11948016 -0.84915388 0.063344009
0.213898 -0.38448063 0.96129435 0.15150945 -0.26597637 -0.95199865 0.063344009
0.25378701 -0.012966195 0.84974998 0.36318138 -0.43611258 -0.82334995 0.063344009
0.01349483 0.15826322 0.60279757 0.056710754 -0.85416222 -0.51690507 0.063344009
-0.30174893 -0.51275361 0.58765787 0.87586331 0.37874338 -0.29902664 0.063344009
0.21652244 -0.14064981 0.89105964 0.24955337 -0.32002228 -0.91395235 0.063344009
0.19091152 0.061733879 0.77081782 0.28809944 -0.63916242 -0.71307087 0.063344009
0.20785455 0.050022919 0.78790331 0.31404433 -0.60146886 -0.73458242 0.063344009
-0.059083756 -0.044272132 0.78083086 0.20074059 -0.46733394 -0.86098909 0.063344009
-0.022879645 -0.10393199 0.81868094 0.21471825 -0.39582175 -0.89287245 0.063344009
0.14463797 0.10736964 0.70527196 0.20537086 -0.76184785 -0.61433756 0.063344009
0.43265635 -0.10655726 0.97415209 0.54264343 -0.045601346 -0.83872437 0.063344009
0.19181193 -0.2409458 0.91710871 0.19737451 -0.27777392 -0.94015157 0.063344009
0.15411118 0.15040348 0.64533621 0.16862296 -0.85510999 -0.49025834 0.063344009
0.120811 0.13386464 0.66172063 0.15428789 -0.82218295 -0.54791468 0.063344009
0.090737954 0.13748106 0.64862448 0.12433122 -0.82858628 -0.54588145 0.063344009
0.18869318 0.15985402 0.64149415 0.19933704 -0.87009043 -0.45078525 0.063344009
-0.23819895 -0.22797956 0.77227902 0.54024684 -0.077099971 -0.83796716 0.063344009
-0.099914297 -0.091059551 0.79325867 0.24606134 -0.38497999 -0.8895191 0.063344009
-0.34051058 -0.1915503 0.6930114 0.67329401 0.063632458 -0.73663163 0.063344009
0.25850332 -0.51747513 1.007339 0.094367601 -0.31879267 -0.94311506 0.063344009
0.23077132 -0.19532906 0.91237241 0.22940259 -0.27801907 -0.93278068 0.063344009
0.25812158 -0.25880069 0.9362008 0.20718254 -0.24303752 -0.94763291 0.063344009
0.17011407 -0.10648942 0.86549103 0.2360169 -0.37537554 -0.89631981 0.063344009
-0.031535793 -0.23060164 0.86252326 0.26556474 -0.27877843 -0.92290735 0.063344009
-0.24110255 -0.054067664 0.73132288 0.3482694 -0.33509374 -0.87545449 0.063344009
-0.066530228 -0.037140094 0.77517945 0.19925821 -0.47601977 -0.85656369 0.063344009
-0.018276982 -0.063597091 0.8004812 0.19948246 -0.44900039 -0.87097955 0.063344009
0.08160577 0.14849444 0.62928343 0.10442355 -0.84910429 -0.51780075 0.063344009
0.09616565 0.22178389 0.45811629 -0.012145933 -0.96089876 -0.27663347 0.063344009
0.16040039 0.17666213 0.59541267 0.1316554 -0.90645337 -0.40125948 0.063344009
-0.33069021 -0.45181555 0.58127439 0.86189705 0.3789908 -0.33689672 0.063344009
0.15092687 -0.14002116 0.87414438 0.21785124 -0.35082325 -0.91074908 0.063344009
0.23053579 0.085335024 0.76666766 0.34722874 -0.66450042 -0.66171849 0.063344009
0.1607606 0.10286298 0.71641153 0.22827549 -0.74760187 -0.62368405 0.063344009
0.14106497 -0.067730054 0.84014851 0.22961016 -0.4327457 -0.8717857 0.063344009
0.11939216 0.12963505 0.66756475 0.15764742 -0.81332159 -0.56004936 0.063344009
0.1098241 0.028731916 0.77175248 0.20947906 -0.60086358 -0.77141523 0.063344009
0.26544055 0.22044599 0.50393343 0.14633143 -0.97096431 -0.1892495 0.063344009
0.22831997 0.14068964 0.69561076 0.29839554 -0.8078993 -0.50819176 0.063344009
0.42204139 0.4340601 1.2615285 0.95428073 0.28980914 0.073204614 0.063344009
0.1786782 0.11292822 0.71086556 0.24437143 -0.76513559 -0.59569299 0.063344009
0.21923429 0.045763064 0.79629487 0.33143714 -0.58286417 -0.74190211 0.063344009
1.0275562 -0.48763064 1.2702192 0.57685298 0.5859738 -0.56910044 0.063344009
0.38265726 -0.34775534 0.98176348 0.2030206 -0.1637619 -0.96538317 0.063344009
0.31708303 -0.26631433 0.95150059 0.23055993 -0.20267676 -0.95171648 0.063344009
0.12838316 -0.2412214 0.9040041 0.19550429 -0.2933754 -0.93579322 0.063344009
0.77378416 -0.038235895 1.5791992 0.71526259 0.65687102 -0.23857889 0.063344009
0.66576689 -0.22424427 1.1294222 0.63482559 0.36841819 -0.67916459 0.063344009
-0.20615895 -0.1969775 0.7864064 0.45198649 -0.16298476 -0.87700868 0.063344009
-0.29985219 -0.16956487 0.72596085 0.57809985 -0.053078089 -0.81423783 0.063344009
-0.097696893 -0.094305508 0.79527014 0.24658006 -0.38173136 -0.89077461 0.063344009
-0.064281836 -0.15289596 0.82763904 0.25572607 -0.32869494 -0.90915555 0.063344009
-0.34051058 -0.1915503 0.6930114 0.67329401 0.063632458 -0.73663163 0.063344009
0.17826459 -0.37303695 0.95216417 0.16321096 -0.27139941 -0.94852757 0.063344009
0.23225093 -0.49384177 0.99658608 0.11288303 -0.309742 -0.94409603 0.063344009
0.27586004 -0.82487357 1.1871604 -0.10076962 -0.70535189 -0.70165819 0.063344009
-0.20784058 -0.14259307 0.77350676 0.39840636 -0.23144346 -0.88752818 0.063344009
-0.29814047 -0.28481287 0.7221458 0.71024883 0.11236527 -0.69492495 0.063344009
-0.10939448 -0.15372254 0.81434846 0.29271859 -0.30396545 -0.90659851 0.063344009
-0.061641056 -0.21582374 0.84908545 0.28474611 -0.27474022 -0.91838849 0.063344009
-0.26446187 0.035834238 0.67989701 0.26632804 -0.4889155 -0.83068103 0.063344009
0.051995583 -0.094991267 0.83192587 0.20223853 -0.41422188 -0.88742316 0.063344009
0.044411894 -0.0079246135 0.78201663 0.1856433 -0.54042602 -0.820656 0.063344009
0.013021395 -0.004658368 0.77291077 0.17785133 -0.54460168 -0.81962061 0.063344009
0.015128948 0.11608391 0.66355062 0.10344996 -0.77597094 -0.62222761 0.063344009
0.39754108 0.070732206 0.91525984 0.74982893 -0.22290209 -0.62295365 0.063344009
0.36083603 -0.32986814 0.97398162 0.20582213 -0.17630686 -0.96257633 0.063344009
0.38610554 -0.36790437 0.98592556 0.18811789 -0.16879265 -0.96753329 0.063344009
0.10255019 -0.15972863 0.87054306 0.20519826 -0.34557492 -0.915681 0.063344009
2.5020914 -0.80040914 4.5702901 0.55711234 0.8227098 -0.11302412 0.063344009
-0.34455413 0.05984991 0.63746899 0.33086956 -0.45578766 -0.82630682 0.063344009
