# .PCD v0.7 - Point Cloud Data file format
VERSION 0.7
FIELDS x y z normal_x normal_y normal_z curvature
SIZE 4 4 4 4 4 4 4
TYPE F F F F F F F
COUNT 1 1 1 1 1 1 1
WIDTH 74
HEIGHT 1
VIEWPOINT 0 0 0 1 0 0 0
POINTS 74
DATA ascii
-0.19966638 -0.29214552 0.71406198 0.78951305 -0.019282481 -0.6134308 0.065708727
-0.28023094 -0.25732011 0.59869319 0.78851378 -0.2434157 -0.56479627 0.065708727
0.1148197 -0.1670979 1.1155876 0.78736973 -0.076178618 -0.61175627 0.065708727
0.0040568616 -0.30891877 0.96263397 0.74724805 0.19703051 -0.63466471 0.065708727
-0.34567884 -1.2182572 0.73746318 0.36686727 -0.91751969 -0.15351225 0.065708727
-0.42338172 -0.49702403 0.41741121 0.69758481 0.22679359 -0.67966175 0.065708727
-0.22467013 -0.37214991 0.67390317 0.75251663 0.15589996 -0.63985461 0.065708727
-0.07726711 -0.70700842 0.66763371 0.68506074 0.31493446 -0.65689272 0.065708727
-0.61221623 -1.2112398 0.28404662 0.43740785 -0.8155663 -0.3788482 0.065708727
-0.65162712 -1.3181183 0.76110196 0.25010028 -0.96647096 -0.058170307 0.065708727
-0.97262585 -1.3901477 0.92447186 0.17653225 -0.98425382 0.0089842919 0.065708727
0.41130236 -0.66648597 1.2042264 0.69867653 0.23744023 -0.6748876 0.065708727
0.1471006 -0.96850079 0.93674898 0.70137304 -0.5236001 -0.48365152 0.065708727
-0.012999742 -1.1549522 1.2837552 0.32524908 -0.94320774 -0.067617968 0.065708727
-0.77298713 -0.6658262 0.053154238 0.58341652 0.22244923 -0.78111559 0.065708727
-0.48936066 -0.81282824 0.22832711 0.6303333 0.23924066 -0.73854172 0.065708727
-0.83867264 -0.70507097 -0.004930499 0.55455178 0.21654601 -0.80348003 0.065708727
-0.6429255 -0.31000549 0.14525498 0.6707992 -0.51751834 -0.53122807 0.065708727
-0.87688404 -0.28600022 -0.18423094 0.45644468 -0.80848956 -0.37148747 0.065708727
-0.97066063 -0.38372269 -0.13999443 0.55394834 -0.56990981 -0.60691351 0.065708727
-0.94680268 -0.43950236 -0.080568895 0.60636669 -0.34206361 -0.71785229 0.065708727
0.3304739 -0.73365331 1.0984241 0.73188245 0.14718595 -0.66534531 0.065708727
-0.35502818 -0.24081436 0.48100114 0.75264454 -0.41871917 -0.50813431 0.065708727
-0.38663772 -1.218858 0.64996159 0.3817516 -0.90551686 -0.18521582 0.065708727
0.11206035 -1.0248662 0.96541464 0.60717493 -0.70638531 -0.36381099 0.065708727
-0.34475237 -0.35527512 0.53312784 0.76974541 0.010931875 -0.63825744 0.065708727
-0.51773643 -0.58309364 0.29441568 0.65489399 0.26625401 -0.70726424 0.065708727
-0.64253014 -0.61267275 0.17332719 0.6280058 0.23852526 -0.74075264 0.065708727
-0.90273356 -0.59510016 -0.027057724 0.58173507 0.09518221 -0.80778998 0.065708727
0.064823687 -0.15618902 1.0470141 0.79449981 -0.17538323 -0.58138692 0.065708727
-1.1605614 -0.90491986 -0.22492282 0.4061183 0.079593748 -0.91034758 0.065708727
-0.56560373 -0.46644169 0.27979475 0.7074703 0.084679894 -0.70165169 0.065708727
-0.31215245 -0.29807606 0.56865412 0.7874434 -0.13255446 -0.60196525 0.065708727
-0.88516611 -0.63636458 -0.021046154 0.56781769 0.15494718 -0.80843955 0.065708727
-0.41789719 -0.32686523 0.43981791 0.77219808 -0.16255891 -0.6142351 0.065708727
-0.17539635 -0.95136756 0.51459306 0.73712897 -0.15392067 -0.65798885 0.065708727
-0.25958279 -0.59585851 0.53940094 0.66720724 0.34500161 -0.6601578 0.065708727
-0.71874028 -0.61650652 0.1091525 0.61350054 0.21015541 -0.7612173 0.065708727
-0.19488269 -0.66537756 0.56799847 0.66733038 0.34380934 -0.6606552 0.065708727
-0.44786185 -0.37566423 0.41115397 0.7582469 -0.037177965 -0.65090662 0.065708727
-0.3417654 -0.23741339 0.49789923 0.75542367 -0.41390881 -0.50795138 0.065708727
-0.84263337 -1.1023387 -0.032707114 0.51157123 -0.37718508 -0.77202737 0.065708727
-0.97045213 -1.086725 -0.11711563 0.46666569 -0.29451165 -0.83395803 0.065708727
-0.69345444 -0.66667515 0.1139973 0.60001498 0.24977867 -0.75999516 0.065708727
-0.60936135 -0.50643116 0.2309335 0.68222302 0.12964632 -0.71955788 0.065708727
-0.87197894 -0.60638559 -0.0063309227 0.58452404 0.12715591 -0.80135077 0.065708727
-0.19372123 -0.85428548 0.49510103 0.71203119 0.13176033 -0.68967444 0.065708727
-0.74563909 -0.49758491 0.1063853 0.66525561 0.013383475 -0.74649572 0.065708727
-0.54003674 -0.73918051 0.2121619 0.6167177 0.284913 -0.7338146 0.065708727
-0.52174771 -0.61053956 0.2801291 0.64471424 0.28111404 -0.71085757 0.065708727
0.15337846 -0.828484 0.88435 0.76104498 0.013883243 -0.64855051 0.065708727
-0.49870479 -0.80143338 0.22414827 0.62684208 0.24988887 -0.73798686 0.065708727
-0.90612489 -0.6763286 -0.043650419 0.54615974 0.1791085 -0.81830901 0.065708727
-0.91542143 -0.70449847 -0.056127496 0.53363049 0.19094041 -0.82388121 0.065708727
-0.69565755 -0.49647698 0.15164253 0.6753099 0.04925577 -0.73588747 0.065708727
-0.36415392 -0.33644286 0.50862718 0.77630162 -0.065942109 -0.62690306 0.065708727
-0.53931761 -0.5580399 0.28325868 0.66334873 0.23653722 -0.7099427 0.065708727
0.36722863 -0.66147268 1.16032 0.69614673 0.26226085 -0.6682806 0.065708727
-0.243311 -0.98922735 0.45051432 0.71907753 -0.24737063 -0.6494115 0.065708727
-0.27102441 -0.96982783 0.41463196 0.71800935 -0.1567547 -0.67815226 0.065708727
-0.23765671 -0.30959049 0.66590488 0.78519863 -0.0081708394 -0.6191901 0.065708727
-0.75998467 -0.22424223 -0.19203942 0.40194082 -0.88252723 -0.24410917 0.065708727
-0.52882659 -1.209684 0.38411805 0.43382126 -0.8409825 -0.32333812 0.065708727
-0.38554078 -0.24671713 0.44092226 0.74383926 -0.43760622 -0.5051772 0.065708727
-0.52433676 -0.6257422 0.27172583 0.63965827 0.28698102 -0.71307731 0.065708727
-0.26417822 -0.13606349 0.48601371 0.62610745 -0.71389562 -0.31359616 0.065708727
-0.76315838 -1.2904049 0.328439 0.31592637 -0.91902947 -0.23574416 0.065708727
-0.5998553 -1.1661962 0.21919429 0.50954175 -0.69732893 -0.50408286 0.065708727
-0.56225055 -0.63829601 0.23322758 0.63095671 0.28020579 -0.72344893 0.065708727
-0.48344603 -0.76431119 0.25065872 0.62804687 0.27862209 -0.72658575 0.065708727
-0.78603739 -0.63937759 0.050531853 0.59043247 0.20044471 -0.78180009 0.065708727
-0.61106229 -1.0379872 0.11305305 0.6153909 -0.22775334 -0.75460088 0.065708727
-1.2559538 -0.808653 -0.25557128 0.38742292 0.10682026 -0.91569257 0.065708727
-0.59873927 -0.71431428 0.17305586 0.60760838 0.28068456 -0.74298602 0.065708727
