# .PCD v0.7 - Point Cloud Data file format
VERSION 0.7
FIELDS x y z normal_x normal_y normal_z curvature
SIZE 4 4 4 4 4 4 4
TYPE F F F F F F F
COUNT 1 1 1 1 1 1 1
WIDTH 97
HEIGHT 1
VIEWPOINT 0 0 0 1 0 0 0
POINTS 97
DATA ascii
-0.70936352 -1.1158266 0.062658578 -0.82809573 -0.4072383 0.38524595 0.070591316
-0.86919975 -0.67413449 -0.055056952 -0.57117087 0.14384779 0.80812848 0.070591316
-0.87640792 -0.68102151 -0.05899851 -0.57283819 0.12783247 0.80963898 0.070591316
-0.76529986 -0.38888985 -0.11648726 -0.12488925 0.44587371 0.88634038 0.070591316
-0.92046082 -0.47640494 -0.12293121 -0.31488222 0.19858785 0.92812288 0.070591316
-0.64414161 -0.51974887 0.0096088722 -0.35952902 0.63548863 0.68329579 0.070591316
-0.86369562 -0.68096685 -0.049886733 -0.58228028 0.14396091 0.80014056 0.070591316
-0.90112728 -0.69451445 -0.074512191 -0.56607604 0.087021738 0.81974703 0.070591316
-1.0544139 -1.114372 -0.19108434 -0.19525439 -0.099168435 0.97572607 0.070591316
-0.96665287 -1.1832117 -0.183927 -0.22642234 -0.23684862 0.944794 0.070591316
-0.57049173 -0.63633305 0.24056412 -0.62433338 0.71025157 0.32519299 0.070591316
-0.66813493 -0.66192114 0.12637506 -0.67728603 0.5165292 0.52390957 0.070591316
-0.75913155 -0.9435221 0.076934725 -0.86355579 -0.14346884 0.48341292 0.070591316
-0.85646915 -0.64101094 -0.053212095 -0.5414623 0.19391389 0.81805623 0.070591316
-0.96528351 -1.1436114 -0.17367643 -0.28904635 -0.22990814 0.9292978 0.070591316
-1.0528636 -1.18571 -0.19848275 -0.094397858 -0.11047186 0.9893862 0.070591316
-0.67920375 -0.37287652 -0.116115 -0.071476273 0.55699921 0.82743156 0.070591316
-0.93985099 -0.65310258 -0.10352309 -0.50991052 0.082128048 0.85629797 0.070591316
-1.0842017 -1.0935992 -0.19521607 -0.18385868 -0.054834835 0.98142201 0.070591316
-1.1750559 -0.99969172 -0.21388873 -0.20030072 0.072073281 0.97707987 0.070591316
-0.65014571 -0.53197128 0.017632859 -0.38731062 0.624834 0.67791814 0.070591316
-0.69063133 -0.73721075 0.16055676 -0.80983526 0.36966661 0.45553645 0.070591316
-0.90323365 -0.44834021 -0.12401161 -0.26945093 0.23206818 0.93463391 0.070591316
-1.1690569 -0.90239602 -0.21887274 -0.31499419 0.057205994 0.94736803 0.070591316
-0.76054734 -0.66245407 0.027722513 -0.63203794 0.3325935 0.69993544 0.070591316
-0.76508272 -0.69337243 0.037283655 -0.67902821 0.28494027 0.6765573 0.070591316
-0.69219917 -1.1120007 0.10911737 -0.86797297 -0.38918319 0.30847919 0.070591316
-0.68515909 -0.6702745 0.1124142 -0.68851691 0.47301507 0.54972833 0.070591316
-0.63905281 -0.78009933 0.37043595 -0.88977981 0.43116108 0.14963976 0.070591316
-0.66934109 -1.0437587 0.36179507 -0.98317075 -0.17880081 0.037490439 0.070591316
-0.95949876 -0.34997466 -0.15663736 -0.15225728 0.15909189 0.97545248 0.070591316
-0.83962071 -0.65530902 -0.038088292 -0.56944329 0.20494266 0.79607338 0.070591316
-0.85860264 -0.65015584 -0.052533925 -0.55137146 0.1820797 0.81414771 0.070591316
-1.168395 -0.94584846 -0.21597113 -0.26999259 0.060924672 0.96093297 0.070591316
-0.6637907 -1.1912509 0.071888261 -0.81221157 -0.49734008 0.30490202 0.070591316
-0.87246567 -0.33315334 -0.15016133 -0.079048932 0.2849513 0.95527691 0.070591316
-1.136274 -0.32617861 -0.19312547 -0.25111523 -0.085138619 0.96420568 0.070591316
-1.2562053 -0.8073293 -0.25916889 -0.35494298 0.12338929 0.92670953 0.070591316
-0.89604574 -0.62294203 -0.081653468 -0.50143486 0.15453239 0.85128307 0.070591316
-0.83476275 -0.96202099 -0.032237157 -0.71251315 -0.20279686 0.67171305 0.070591316
-0.86355948 -0.40761396 -0.12579444 -0.19191548 0.29946658 0.9346059 0.070591316
-0.68333817 -0.37954891 -0.11202409 -0.084317133 0.55441833 0.8279559 0.070591316
-1.1795712 -1.0334827 -0.21211064 -0.15296966 0.078294203 0.98512453 0.070591316
-0.84898931 -1.0651057 -0.084320709 -0.60311651 -0.31358451 0.73342705 0.070591316
-1.0104135 -1.0082464 -0.16420288 -0.38823113 -0.12819771 0.91260171 0.070591316
-1.0310814 -0.91523284 -0.16335145 -0.4399398 -0.074871548 0.89490068 0.070591316
-0.89460158 -0.33615121 -0.15132819 -0.095087647 0.25331578 0.96269906 0.070591316
-0.78559196 -0.34354621 -0.14008185 -0.056581676 0.40850073 0.91100258 0.070591316
-0.85708982 -0.41306409 -0.12266317 -0.19817342 0.30891031 0.93021595 0.070591316
-1.0628016 -1.0353988 -0.18609625 -0.28632116 -0.074141525 0.95526081 0.070591316
-0.85563087 -0.63912916 -0.053107742 -0.53957152 0.1969174 0.8185879 0.070591316
-0.57069927 -0.63984382 0.24792585 -0.63194364 0.70780998 0.31567746 0.070591316
-0.66696906 -0.87868273 0.41453525 -0.97849554 0.196244 0.063519537 0.070591316
-0.63913333 -0.67595917 0.18508892 -0.71354491 0.55918509 0.42209682 0.070591316
-0.52138758 -0.57436359 0.18383455 -0.47595143 0.79595852 0.37405911 0.070591316
-0.87640792 -0.68102151 -0.05899851 -0.57283819 0.12783247 0.80963898 0.070591316
-0.6814211 -0.62627989 0.078603886 -0.59669554 0.52420449 0.60758871 0.070591316
-0.89567792 -0.71074575 -0.069033258 -0.58275098 0.076887056 0.80900538 0.070591316
-0.84114677 -1.1036841 -0.095531404 -0.57274729 -0.35318097 0.73974574 0.070591316
-1.0024453 -1.1721385 -0.18923017 -0.18699093 -0.18272606 0.96521789 0.070591316
-0.83210033 -1.1639225 -0.11949797 -0.5049789 -0.40471798 0.76236451 0.070591316
-0.78401655 -1.0761454 -0.025060864 -0.72146207 -0.35732082 0.59313935 0.070591316
-0.84905148 -1.0686753 -0.085903697 -0.59907264 -0.31681314 0.73535126 0.070591316
-0.77089202 -0.67047191 0.022007201 -0.63837558 0.30363959 0.70730448 0.070591316
-0.86706901 -0.56700927 -0.078451298 -0.4388954 0.23680584 0.86677206 0.070591316
-0.90507179 -0.58955747 -0.092925206 -0.46065113 0.16641878 0.87184018 0.070591316
-0.67468387 -0.71393251 0.16774864 -0.77822185 0.43895605 0.44909722 0.070591316
-1.0560431 -1.1902875 -0.19926922 -0.08339037 -0.10626842 0.99083453 0.070591316
-1.2930686 -0.30001533 -0.24124484 -0.38747054 -0.27105969 0.88113177 0.070591316
-1.1723363 -0.33671665 -0.20462616 -0.29638985 -0.12636854 0.94667 0.070591316
-0.70643818 -0.74396276 0.13845631 -0.80874574 0.32480735 0.49033716 0.070591316
-1.1528047 -0.99977338 -0.20905969 -0.22291306 0.043409683 0.97387135 0.070591316
-0.69323063 -0.43664742 -0.074840754 -0.19271389 0.55712473 0.80775821 0.070591316
-0.83210558 -0.37910533 -0.13021544 -0.13312544 0.34737027 0.92823029 0.070591316
-0.92511731 -0.39467224 -0.14192003 -0.19887654 0.20763373 0.95777678 0.070591316
-1.0373691 -0.39341465 -0.16854104 -0.25825533 0.048649341 0.96485096 0.070591316
-0.95711321 -0.38988745 -0.14960197 -0.20802942 0.16092555 0.96479362 0.070591316
-1.5251738 -1.0014963 -0.23665486 0.034298375 0.50147432 0.86449242 0.070591316
-0.65529835 -1.1239029 0.25153896 -0.93063384 -0.34954074 0.1083604 0.070591316
-0.86745173 -0.66508365 -0.05550405 -0.56278753 0.15519819 0.81190127 0.070591316
-0.90348947 -0.60853213 -0.088538632 -0.48275688 0.15551037 0.86183661 0.070591316
-0.89567792 -0.71074575 -0.069033258 -0.58275098 0.076887056 0.80900538 0.070591316
-1.0735433 -1.2478595 -0.20534484 0.022754673 -0.085177936 0.99610591 0.070591316
-0.73994911 -0.98613507 0.097666986 -0.88445842 -0.20479468 0.41927606 0.070591316
-0.83284283 -0.68081212 -0.026629407 -0.60598338 0.18727016 0.77311969 0.070591316
-0.61319238 -0.73701429 0.37707099 -0.82186544 0.54814744 0.1551501 0.070591316
-0.84766406 -0.61498421 -0.054292876 -0.51154667 0.23083229 0.82766926 0.070591316
-0.75262749 -0.69672835 0.051645249 -0.6945799 0.30375427 0.65214425 0.070591316
-0.79574049 -1.1540182 -0.085984774 -0.59469092 -0.43067262 0.67886955 0.070591316
-1.0976007 -1.0716008 -0.19681843 -0.19611309 -0.033866089 0.97999632 0.070591316
-0.75290108 -0.97648233 0.07639952 -0.86398798 -0.19818749 0.46286765 0.070591316
-0.66451728 -1.1169962 0.20690337 -0.91873336 -0.35866424 0.16519374 0.070591316
-0.77911073 -0.63367903 -0.00082071975 -0.5722664 0.32971683 0.7508648 0.070591316
-0.70169133 -0.69225144 0.10888652 -0.72325808 0.41177079 0.55438489 0.070591316
-0.76186883 -0.6408838 0.016163521 -0.59368628 0.35424751 0.72252703 0.070591316
-0.83440733 -0.70128691 -0.023242136 -0.62828761 0.16075626 0.76119119 0.070591316
-1.1382378 -0.32903439 -0.19389784 -0.25631234 -0.08705429 0.96266586 0.070591316
