# .PCD v0.7 - Point Cloud Data file format
VERSION 0.7
FIELDS x y z normal_x normal_y normal_z curvature
SIZE 4 4 4 4 4 4 4
TYPE F F F F F F F
COUNT 1 1 1 1 1 1 1
WIDTH 82
HEIGHT 1
VIEWPOINT 0 0 0 1 0 0 0
POINTS 82
DATA ascii
-0.39852899 -0.2646313 0.75650084 0.69528425 -0.3372474 -0.63469994 0.045875687
-0.27610987 -0.0073027173 0.76871628 0.67469507 -0.25580963 -0.69234961 0.045875687
-0.52044547 -0.37506056 0.67621422 0.73893887 -0.37639096 -0.55883735 0.045875687
0.19183107 -0.049680557 1.1706313 0.59067005 -0.29471299 -0.75116783 0.045875687
-0.21591607 -0.46728551 1.0368806 0.58091366 -0.39159906 -0.71357512 0.045875687
-0.40487975 -0.4878678 0.8819344 0.6361919 -0.41974959 -0.64735627 0.045875687
-0.54345363 -0.46779022 0.71220064 0.72141814 -0.41758171 -0.55243224 0.045875687
-0.45419148 -0.35339305 0.744304 0.70397151 -0.37037215 -0.60601038 0.045875687
0.12787576 -1.0336738 1.6041594 0.55385989 -0.3929691 -0.73403984 0.045875687
-1.4201295 -1.5986881 1.8688339 -0.3317166 -0.79129052 -0.51363742 0.045875687
-0.32253054 -0.15018217 0.78073037 0.67840445 -0.29940471 -0.67091298 0.045875687
-0.37091842 -0.3289969 0.8206104 0.66611725 -0.36090386 -0.65271449 0.045875687
-0.41027838 -0.57740057 0.93672919 0.60657978 -0.45150763 -0.65437132 0.045875687
0.27796119 -0.26235151 1.3326924 0.61782986 -0.33133036 -0.71309644 0.045875687
-0.43309718 -0.39604333 0.79434001 0.6795156 -0.38727081 -0.62312108 0.045875687
0.30081701 -0.90693086 1.685877 0.65545678 -0.35424626 -0.66699779 0.045875687
-0.62546819 -0.32925579 0.48039609 0.82966638 -0.33331895 -0.4478305 0.045875687
-0.15238607 -0.52440852 1.1183963 0.56018955 -0.39721835 -0.72691488 0.045875687
-0.35559994 -0.38986209 0.8702004 0.64364439 -0.38156667 -0.66342205 0.045875687
-0.20869115 -0.78682125 1.2315887 0.50073749 -0.45917138 -0.73377353 0.045875687
-0.5986076 -0.67472327 0.81846917 0.65682912 -0.51673228 -0.54914773 0.045875687
-0.50921196 -0.4298223 0.72819567 0.7131784 -0.40143287 -0.57465488 0.045875687
-0.36910573 -0.1279906 0.72196728 0.70532244 -0.28899091 -0.64730555 0.045875687
0.053443618 -0.16300699 1.1077573 0.58605868 -0.30910847 -0.74899077 0.045875687
-0.09088245 -0.23786831 1.0253736 0.59383285 -0.32550755 -0.7358039 0.045875687
0.76912493 -1.4198468 2.9006624 0.98302358 -0.019845709 -0.18240269 0.045875687
-0.30163106 -0.52706349 1.0002224 0.58650154 -0.41919389 -0.69303137 0.045875687
-0.16740172 -0.31599054 0.99886274 0.59833944 -0.34793478 -0.72175568 0.045875687
0.31087318 -0.30172834 1.3803979 0.63094842 -0.33631733 -0.69913852 0.045875687
-0.38120791 -0.52455169 0.92832041 0.61390662 -0.42961264 -0.66223234 0.045875687
-0.30830035 -0.28489065 0.85900491 0.64802969 -0.34445953 -0.67926812 0.045875687
-0.33956096 -0.24428083 0.80794251 0.66990042 -0.33102319 -0.66457283 0.045875687
0.13325788 -0.25817344 1.2113421 0.58834553 -0.32806998 -0.73906672 0.045875687
0.17105995 -0.28796953 1.2550811 0.59386915 -0.3330009 -0.73241371 0.045875687
-0.58634698 -0.34726214 0.5610106 0.79447484 -0.35342658 -0.49386171 0.045875687
0.10663712 -0.19577357 1.1631709 0.58651847 -0.3167091 -0.74544716 0.045875687
0.070163697 -0.3046838 1.1823498 0.5816499 -0.33648315 -0.74058253 0.045875687
-0.27364969 -0.45866486 0.98395729 0.596789 -0.39591357 -0.69792217 0.045875687
-0.62754607 -0.59220785 0.70216817 0.72374976 -0.47592169 -0.49968472 0.045875687
-0.66028589 -0.79044694 0.86292875 0.61885715 -0.57936317 -0.53042829 0.045875687
-2.0758865 -2.4161291 3.2647214 -0.70508045 -0.33304581 -0.62605274 0.045875687
-0.33956096 -0.24428083 0.80794251 0.66990042 -0.33102319 -0.66457283 0.045875687
-0.43258676 -0.17526737 0.67156178 0.73312491 -0.30097809 -0.60986888 0.045875687
-0.40622914 -0.19654103 0.7129069 0.713741 -0.31132618 -0.62741518 0.045875687
-0.53062236 -0.52557802 0.77257204 0.68930072 -0.44400793 -0.57246965 0.045875687
-0.63850629 -0.42080793 0.52930367 0.81009561 -0.37881792 -0.4474842 0.045875687
-0.75691295 -0.67049348 0.56510764 0.78582877 -0.49977073 -0.36428338 0.045875687
0.27796119 -0.26235151 1.3326924 0.61782986 -0.33133036 -0.71309644 0.045875687
0.31481951 -0.35026672 1.4076114 0.63581592 -0.3408013 -0.69252622 0.045875687
0.50767767 -0.80584669 1.8791054 0.79066896 -0.30836189 -0.52891922 0.045875687
-2.3472338 -1.3240812 1.4941033 -0.069957867 -0.96073329 0.26850963 0.045875687
-1.0660809 -1.0525736 0.53208989 0.72034532 -0.68818426 -0.086631298 0.045875687
0.18172947 -0.63625348 1.4352285 0.59521949 -0.3714349 -0.71256572 0.045875687
-0.32177156 -0.45064604 0.93711811 0.61409527 -0.39872947 -0.68110341 0.045875687
-0.054637533 -0.26098984 1.0646526 0.58695209 -0.33022001 -0.7392171 0.045875687
0.049459983 -0.21570829 1.1268094 0.58441353 -0.31969813 -0.74582434 0.045875687
0.15459998 -0.21206678 1.2081354 0.59079236 -0.32072923 -0.74033582 0.045875687
-0.26616311 -0.3128311 0.91219991 0.62653583 -0.3518962 -0.69542927 0.045875687
-0.38925788 -0.47098103 0.88639665 0.63474977 -0.41226023 -0.65355504 0.045875687
1.082738 -2.4845111 4.5529976 0.96305156 0.2666443 -0.037849348 0.045875687
-0.31446838 -0.62501168 1.0508125 0.55994648 -0.44851026 -0.6966337 0.045875687
-0.42722559 -0.34162432 0.76788801 0.69191474 -0.36606783 -0.62229276 0.045875687
-0.93979311 -1.2688478 1.2727054 0.20958982 -0.81344128 -0.54257292 0.045875687
-0.50192869 -0.41404942 0.72632003 0.71402955 -0.39470994 -0.57824373 0.045875687
-0.53440267 -0.59848845 0.82624787 0.65835345 -0.47619092 -0.5829348 0.045875687
-0.60606188 -0.60501248 0.74405718 0.70120889 -0.48317158 -0.52426267 0.045875687
-0.61296433 -0.34271735 0.51296031 0.81605095 -0.34428382 -0.46425155 0.045875687
-0.71288174 -0.61691856 0.58667994 0.7796936 -0.47686541 -0.40580451 0.045875687
-0.54144233 -0.49701896 0.7371121 0.70828557 -0.43118817 -0.55893499 0.045875687
-0.29942262 -0.2815398 0.86574185 0.64508456 -0.34317082 -0.68271494 0.045875687
-0.70853996 -0.72586232 0.72419971 0.70240927 -0.54780006 -0.45446265 0.045875687
-0.37927103 -0.14728257 0.71956652 0.70767933 -0.29513234 -0.64193994 0.045875687
-0.7664901 -0.68958843 0.5710277 0.78150654 -0.51050234 -0.35865709 0.045875687
-0.55317897 -0.26285487 0.55691415 0.79343361 -0.32009858 -0.51768714 0.045875687
-0.63662374 -0.58246613 0.67941189 0.73588067 -0.46992567 -0.4874931 0.045875687
0.16436897 -0.2194681 1.219166 0.59212381 -0.32219863 -0.73863214 0.045875687
0.065123931 -0.27789149 1.1663195 0.58242381 -0.33165666 -0.74214983 0.045875687
-0.32180223 -0.41006884 0.91367781 0.62477332 -0.38584688 -0.67880815 0.045875687
-0.38181481 -0.33517802 0.81285733 0.66988051 -0.36333823 -0.64749163 0.045875687
-0.31818062 -0.086915053 0.75793916 0.68534565 -0.27846536 -0.67287326 0.045875687
0.37408668 -0.97468668 1.79883 0.70660263 -0.33039433 -0.62574142 0.045875687
-0.51556498 -0.50970298 0.77841395 0.68666482 -0.43650648 -0.58133769 0.045875687
