# .PCD v0.7 - Point Cloud Data file format
VERSION 0.7
FIELDS x y z normal_x normal_y normal_z curvature
SIZE 4 4 4 4 4 4 4
TYPE F F F F F F F
COUNT 1 1 1 1 1 1 1
WIDTH 117
HEIGHT 1
VIEWPOINT 0 0 0 1 0 0 0
POINTS 117
DATA ascii
-0.82080156 -1.1872327 0.00059663842 -0.79607397 0.19671302 0.57233745 0.12898821
-0.97081786 -1.1735939 -0.15073663 -0.51921582 0.27366012 0.809645 0.12898821
-0.86192673 -0.67372102 -0.058642272 -0.66896856 0.026201962 0.74282873 0.12898821
-0.82714254 -0.69264364 -0.023852874 -0.72125661 0.050821364 0.69080102 0.12898821
-0.85677797 -0.6480391 -0.055528048 -0.6552211 0.058800947 0.75314522 0.12898821
-0.65460885 -0.37636444 -0.072723038 -0.21541773 0.71940553 0.6603415 0.12898821
-0.91851413 -0.48458293 -0.11833827 -0.39739612 0.18371387 0.89906925 0.12898821
-1.0421846 -1.1181749 -0.20413786 -0.38878337 0.20273162 0.89874768 0.12898821
-0.60840613 -0.79049295 0.33848459 -0.85681266 0.2420107 0.45530525 0.12898821
-0.57917756 -0.62535739 0.25642467 -0.66523677 0.5343495 0.52146965 0.12898821
-0.86223364 -0.60306555 -0.06471882 -0.60668629 0.10436159 0.7880612 0.12898821
-0.90902448 -0.63404393 -0.09737096 -0.58041096 0.008387913 0.81428051 0.12898821
-0.82086992 -0.66382277 -0.020303611 -0.70596224 0.089434184 0.70258009 0.12898821
-0.8533057 -0.64649671 -0.052622844 -0.65778452 0.0650675 0.75039041 0.12898821
-0.86192673 -0.67372102 -0.058642272 -0.66896856 0.026201962 0.74282873 0.12898821
-0.68406016 -0.64878654 0.13616566 -0.75511199 0.32265869 0.57069892 0.12898821
-0.86200774 -1.1023477 -0.071888037 -0.75189561 0.094035462 0.65254146 0.12898821
-0.96287608 -0.29104578 -0.18917389 -0.042454254 0.38314649 0.92271143 0.12898821
-0.95389479 -0.38518232 -0.1546583 -0.20934801 0.27346706 0.93882328 0.12898821
-0.88795358 -1.1655805 -0.086060792 -0.69245571 0.20536953 0.69161296 0.12898821
-0.93078518 -0.43057975 -0.1357116 -0.30070925 0.2440367 0.9219653 0.12898821
-1.059203 -1.1854683 -0.19019243 -0.32119948 0.34855005 0.88053608 0.12898821
-0.86739391 -0.40283337 -0.12486246 -0.28045958 0.38794893 0.87797385 0.12898821
-0.67166495 -0.67317653 0.16703638 -0.78135353 0.30622157 0.54379684 0.12898821
-0.78632909 -0.63198376 0.0087084258 -0.70418578 0.18029763 0.68674237 0.12898821
-0.79084051 -0.55251825 -0.021266714 -0.59507829 0.29126409 0.74903077 0.12898821
-0.96542537 -0.95360607 -0.17073055 -0.58054024 -0.051729411 0.81258667 0.12898821
-1.0582381 -1.1145921 -0.21154875 -0.35650122 0.20348597 0.91186643 0.12898821
-1.4331961 -1.8073117 1.0635993 0.15505335 0.95491707 0.25316361 0.12898821
-1.1095742 -0.42457619 -0.17954609 -0.15719756 0.012870169 0.98748332 0.12898821
-0.75120544 -0.25558549 -0.20718192 0.010807456 0.67665982 0.73621649 0.12898821
-0.63677591 -0.59259254 0.1549771 -0.65840483 0.4914057 0.57010829 0.12898821
-0.83714843 -0.66081846 -0.036551066 -0.68708885 0.070783496 0.72311729 0.12898821
-0.85268635 -0.64458668 -0.052249789 -0.65683049 0.068014599 0.75096452 0.12898821
-0.70869851 -0.65029329 0.10486823 -0.75641972 0.27925411 0.59147811 0.12898821
-0.82846236 -0.8068682 -0.024501167 -0.77348167 -0.028579339 0.633174 0.12898821
-0.98763347 -1.1797053 -0.15887401 -0.47943798 0.29648665 0.82597512 0.12898821
-0.77273673 -0.67930168 0.035155188 -0.75869 0.1393238 0.63637912 0.12898821
-1.1373448 -0.91573155 -0.24966155 -0.26757967 -0.065918699 0.96127826 0.12898821
-0.84285712 -0.26573068 -0.19913128 -0.011448204 0.569691 0.82177925 0.12898821
-0.83515632 -0.25747976 -0.20492581 0.003439625 0.58450431 0.81138331 0.12898821
-0.86885351 -0.41158238 -0.12155169 -0.2974371 0.37322223 0.87876981 0.12898821
-1.1403598 -0.32577384 -0.18800171 -0.02766664 0.10061501 0.99454069 0.12898821
-1.1345186 -0.3471849 -0.18581314 -0.055498134 0.080124669 0.99523866 0.12898821
-1.3492013 -0.38651067 -0.18985006 0.037693407 -0.13213322 0.99051505 0.12898821
-0.88752252 -0.70895398 -0.081550695 -0.65770024 -0.030640678 0.75265634 0.12898821
-1.3497623 -0.28283316 -0.18033604 0.1025902 -0.044505164 0.99372762 0.12898821
-0.60903239 -0.28210154 -0.17746817 -0.012486269 0.78922868 0.61397249 0.12898821
-0.62583584 -0.28780693 -0.17081167 -0.027048584 0.77682424 0.62913626 0.12898821
-0.87677729 -0.53653234 -0.085942842 -0.5101952 0.17331541 0.84241474 0.12898821
-0.69927824 -0.44037607 -0.029253881 -0.37476912 0.6067642 0.70098883 0.12898821
-0.88930213 -0.42283368 -0.12414764 -0.31033543 0.32299131 0.89407414 0.12898821
-0.90902448 -0.63404393 -0.09737096 -0.58041096 0.008387913 0.81428051 0.12898821
-1.1577294 -1.0184126 -0.2546829 -0.20218186 0.075297877 0.97644901 0.12898821
-0.79709983 -0.85267752 0.015281959 -0.82018405 -0.018327091 0.57180607 0.12898821
-0.85469824 -0.68400675 -0.051631756 -0.68462735 0.025267251 0.72845519 0.12898821
-1.0685958 -1.0887576 -0.22060978 -0.34546271 0.15963267 0.92475563 0.12898821
-0.7276786 -1.0941942 0.14102085 -0.89960754 0.055280797 0.43318617 0.12898821
-0.63353366 -0.69868225 0.24015935 -0.79676092 0.33087006 0.50566494 0.12898821
-0.614712 -0.91132939 0.37320027 -0.90512937 0.11188977 0.41014811 0.12898821
-0.65801179 -0.96935207 0.28556263 -0.91738206 0.049715057 0.39489058 0.12898821
-0.67479962 -0.60463387 0.12004299 -0.69341671 0.40814978 0.59379035 0.12898821
-0.6951403 -0.72500426 0.15585203 -0.82742387 0.19708689 0.52585787 0.12898821
-0.86318088 -0.57009238 -0.070579253 -0.5674842 0.14677657 0.81019646 0.12898821
-0.73339421 -1.1252406 0.1340166 -0.89481497 0.079490244 0.43930337 0.12898821
-0.84763855 -0.91956139 -0.056154158 -0.77206647 -0.048455428 0.63369191 0.12898821
-0.99130601 -1.0085398 -0.18957388 -0.52539217 0.0080857631 0.85082179 0.12898821
-0.83613634 -1.1054749 -0.039685957 -0.79051715 0.08902695 0.60593474 0.12898821
-1.0100055 -1.1824253 -0.17002773 -0.42886528 0.31544438 0.84650421 0.12898821
-0.58326352 -0.63207966 0.2579391 -0.67917013 0.51755923 0.52044243 0.12898821
-1.0226557 -1.1894021 -0.17349833 -0.39755514 0.33736965 0.85330629 0.12898821
-1.1025949 -1.2284601 -0.1834663 -0.21131602 0.45920655 0.86282957 0.12898821
-0.92381722 -0.39330971 -0.14486417 -0.23864339 0.3094019 0.92049974 0.12898821
-0.8342092 -0.63045847 -0.037574746 -0.66292971 0.1103078 0.74051088 0.12898821
-0.85268635 -0.64458668 -0.052249789 -0.65683049 0.068014599 0.75096452 0.12898821
-0.85677797 -0.6480391 -0.055528048 -0.6552211 0.058800947 0.75314522 0.12898821
-0.76461709 -0.66646767 0.041705102 -0.75261992 0.1675508 0.63678098 0.12898821
-1.1141458 -0.98666877 -0.24499673 -0.2908785 0.012951148 0.95667237 0.12898821
-0.81380856 -0.67190117 -0.01202868 -0.71924996 0.089999676 0.68889731 0.12898821
-1.2001537 -1.0623184 -0.25612786 -0.11364429 0.16662768 0.97944891 0.12898821
-0.66071248 -0.38180214 -0.068914399 -0.22954798 0.70925629 0.66653073 0.12898821
-1.0202502 -0.36972547 -0.17090297 -0.14883938 0.19636238 0.96916908 0.12898821
-1.1436229 -0.32763052 -0.18791135 -0.028246706 0.094509169 0.99512321 0.12898821
-0.99781489 -1.1472632 -0.17497802 -0.47210008 0.23673578 0.84916294 0.12898821
-1.0444258 -1.1380534 -0.20015641 -0.37549201 0.24290347 0.89442921 0.12898821
-1.0648553 -1.2590275 -0.15513536 -0.26919067 0.50643253 0.81918401 0.12898821
-0.86753446 -1.0801072 -0.080906034 -0.74573767 0.067378625 0.66282386 0.12898821
-0.74585831 -1.032264 0.099422723 -0.88714361 0.020889243 0.4610205 0.12898821
-0.78548068 -0.63737959 0.010983317 -0.7105245 0.17424411 0.68175799 0.12898821
-0.60228842 -0.91191405 0.40060076 -0.90165746 0.12321385 0.4145264 0.12898821
-0.69824189 -0.67180353 0.12887171 -0.78073394 0.26466498 0.56604505 0.12898821
-0.81863511 -0.28732869 -0.18291284 -0.0522964 0.58448792 0.80971533 0.12898821
-0.692545 -0.42752588 -0.037173122 -0.34351459 0.63037568 0.69614953 0.12898821
-0.87489808 -0.41458586 -0.12235652 -0.30096191 0.35888818 0.8835277 0.12898821
-0.82320011 -0.44849432 -0.086627677 -0.38871953 0.39667076 0.83159453 0.12898821
-0.66685677 -1.1146935 0.28192285 -0.9221701 0.061769556 0.38182035 0.12898821
-0.58702165 -0.74315023 0.34737271 -0.81007814 0.34025431 0.47749388 0.12898821
-0.69356257 -0.7267251 0.15898935 -0.82891107 0.19726703 0.52344263 0.12898821
-0.56372911 -0.21693288 -0.26924032 0.1027659 0.81166506 0.57501215 0.12898821
-1.1326385 -0.98364186 -0.25031948 -0.25817618 0.014704814 0.96598595 0.12898821
-0.83714843 -0.66081846 -0.036551066 -0.68708885 0.070783496 0.72311729 0.12898821
-0.85392869 -0.63127244 -0.054634511 -0.64356744 0.081582919 0.76102901 0.12898821
-0.8723169 -0.67727965 -0.067782119 -0.65871227 0.010665904 0.75231934 0.12898821
-0.76013619 -0.66759813 0.047341906 -0.75627196 0.17287689 0.63100421 0.12898821
-0.73242253 -1.0295122 0.12578259 -0.89584315 0.022312917 0.44380981 0.12898821
-0.75516516 -0.66744953 0.053293623 -0.75885838 0.18066274 0.62569553 0.12898821
-0.8164534 -0.35823119 -0.13448167 -0.19765137 0.52422637 0.82832396 0.12898821
-0.94196415 -1.1012504 -0.14810616 -0.60593271 0.12487382 0.78565389 0.12898821
-0.79863757 -1.1433026 0.020749871 -0.83412051 0.12145913 0.53804338 0.12898821
-0.80986845 -0.41830575 -0.096510291 -0.32848993 0.46173525 0.82395077 0.12898821
-1.079353 -1.1903425 -0.19502936 -0.2769728 0.36871168 0.88732058 0.12898821
-0.76175845 -0.95465553 0.069052763 -0.86932433 -0.0047952584 0.49421877 0.12898821
-0.78125829 -0.25929356 -0.20366687 0.0017341868 0.64435971 0.76472062 0.12898821
-0.9524886 -0.39714035 -0.15093899 -0.23063445 0.25856066 0.93805867 0.12898821
-0.92114121 -0.30963853 -0.1780792 -0.084413901 0.42220297 0.90256244 0.12898821
-1.5181384 -1.0074688 -0.24083029 0.22289398 0.19332607 0.95548069 0.12898821
-1.1066828 -0.31812489 -0.18791893 -0.033868957 0.15095709 0.98795992 0.12898821
