# .PCD v0.7 - Point Cloud Data file format
VERSION 0.7
FIELDS x y z normal_x normal_y normal_z curvature
SIZE 4 4 4 4 4 4 4
TYPE F F F F F F F
COUNT 1 1 1 1 1 1 1
WIDTH 89
HEIGHT 1
VIEWPOINT 0 0 0 1 0 0 0
POINTS 89
DATA ascii
-0.30282256 -0.17513666 0.79179364 -0.48893988 -0.17875659 0.85380554 0.062773742
0.21070005 0.21265301 1.0004039 -0.39338112 0.028366784 0.91893774 0.062773742
-0.020188442 0.32742542 0.8896696 -0.31608382 0.32618892 0.89089382 0.062773742
0.073575936 0.18147697 0.95044178 -0.31664842 0.060014375 0.94664252 0.062773742
-0.018593824 0.31068799 0.89599854 -0.31424597 0.29233515 0.9032107 0.062773742
0.40004951 -0.29681978 1.1195929 -0.36704144 0.43731183 0.82099873 0.062773742
-0.36813644 -0.32055038 0.70920354 -0.68933344 -0.17368135 0.70331657 0.062773742
-0.40903932 0.023267705 0.7859329 -0.40532035 -0.19163749 0.89386266 0.062773742
-0.45943043 -0.26818883 0.63594925 -0.68983179 -0.34845337 0.63459623 0.062773742
0.61393768 0.87125057 1.6422236 -0.98025388 0.18759729 -0.062526934 0.062773742
0.099842772 0.41635698 0.89861894 -0.39227369 0.44697753 0.80394804 0.062773742
-0.21230212 0.089767568 0.86621088 -0.29945564 -0.027125932 0.95372456 0.062773742
0.19594558 0.11555435 0.99417555 -0.34506634 -0.026665483 0.9381994 0.062773742
-0.25678182 0.24365927 0.84028476 -0.28319949 0.20697734 0.93646061 0.062773742
0.31551912 0.033306383 1.0359579 -0.37747583 -0.063600048 0.92383277 0.062773742
-0.32232058 -0.43945056 0.75031364 -0.76581007 0.093825482 0.63618529 0.062773742
-0.42957118 -0.38999179 0.61386889 -0.80658567 -0.21852222 0.54924273 0.062773742
0.16395786 -0.037050515 0.97912544 -0.31220451 -0.003306739 0.95000917 0.062773742
0.14765634 0.38635549 0.93701273 -0.42422968 0.3499096 0.83521998 0.062773742
-0.28034565 -0.079093277 0.82220161 -0.39928296 -0.16388583 0.90206128 0.062773742
-0.022559103 0.36498925 0.87311798 -0.31902805 0.40442958 0.85712183 0.062773742
-0.019002551 0.36982286 0.8721379 -0.32085437 0.41300425 0.85233796 0.062773742
-0.21955965 -0.2450982 0.83029586 -0.49865392 -0.039264277 0.86591142 0.062773742
-0.20441157 0.32331645 0.83103216 -0.27546421 0.37025332 0.8871482 0.062773742
0.46966538 0.060859233 1.1137139 -0.49288335 -0.15823771 0.85558563 0.062773742
-0.13509403 -0.027849311 0.8839013 -0.31721947 -0.070740916 0.94571006 0.062773742
-0.036126211 -0.069823772 0.91449738 -0.3130278 -0.027717413 0.94933945 0.062773742
0.057280947 0.27409205 0.93272334 -0.33656335 0.19301565 0.92166698 0.062773742
-0.19384527 0.15468308 0.87099349 -0.28555608 0.055631138 0.95674598 0.062773742
0.23099163 0.10628427 1.007006 -0.35834056 -0.042214561 0.93263602 0.062773742
-0.22238441 0.04971334 0.86094719 -0.31292915 -0.067416511 0.94738078 0.062773742
-0.11563931 -0.0033438883 0.89195061 -0.30478841 -0.058618028 0.95061451 0.062773742
0.15514486 0.18781608 0.97899336 -0.3520005 0.034802787 0.93535256 0.062773742
-0.10155898 0.18361333 0.89588028 -0.28219962 0.096871644 0.95445234 0.062773742
0.19111599 0.19049913 0.99287206 -0.37158218 0.019523887 0.92819476 0.062773742
0.4021287 -0.29569012 1.1199229 -0.36775249 0.43521464 0.82179457 0.062773742
0.0057709916 -0.2360343 0.93788457 -0.37641746 0.15336832 0.91366738 0.062773742
-0.33345076 0.18788105 0.82522392 -0.30808491 0.089388624 0.94715011 0.062773742
-0.38741505 -0.37208638 0.67558789 -0.76078522 -0.15309764 0.63068765 0.062773742
-0.077782318 -0.47933567 1.0016036 -0.49532127 0.56847113 0.65688461 0.062773742
-0.41518971 -0.12648141 0.73769361 -0.51814407 -0.29671338 0.80217695 0.062773742
-0.47566837 -0.26949281 0.61706108 -0.70007324 -0.37102252 0.61011451 0.062773742
-0.16641553 0.25438052 0.86490101 -0.28005156 0.22205116 0.93395096 0.062773742
-0.1712786 0.23625349 0.8674159 -0.2800321 0.18856096 0.94128996 0.062773742
-0.3530049 -0.0027249674 0.80533171 -0.38927197 -0.17757855 0.90384358 0.062773742
-0.33766043 -0.14844893 0.77806306 -0.48712716 -0.21964303 0.84525979 0.062773742
-0.22941998 -0.20424493 0.82783002 -0.46867514 -0.086574323 0.87911803 0.062773742
-0.29306409 -0.18056177 0.79626864 -0.4876315 -0.16656774 0.85701269 0.062773742
0.0025485875 0.39682683 0.86646539 -0.33207026 0.45981082 0.82359177 0.062773742
0.059122786 0.32668817 0.91954547 -0.3515377 0.28753531 0.8909235 0.062773742
-0.14862339 -0.46884987 0.93701553 -0.56931698 0.46845326 0.67559582 0.062773742
-0.036971886 -0.067078263 0.91430086 -0.31222796 -0.028951677 0.94956595 0.062773742
-0.22994545 -0.00097620377 0.85366368 -0.33434033 -0.10462243 0.93662727 0.062773742
0.10515182 0.24648832 0.95524126 -0.34987256 0.12722039 0.92811859 0.062773742
-0.1022248 0.32953972 0.86092567 -0.29104647 0.35927007 0.88668877 0.062773742
-0.096041314 0.09219569 0.9014942 -0.2842423 -0.0040846718 0.95874375 0.062773742
-0.074998893 0.081657417 0.9076575 -0.28454262 -0.0099774152 0.95861149 0.062773742
0.23099163 0.10628427 1.007006 -0.35834056 -0.042214561 0.93263602 0.062773742
0.018859806 -0.019944856 0.93337977 -0.29628196 -0.024815178 0.95477808 0.062773742
-0.08854536 0.20605321 0.89710242 -0.28453213 0.12819356 0.95005679 0.062773742
0.014559066 0.15702179 0.93291515 -0.29557985 0.049684927 0.95402515 0.062773742
-0.010140393 0.1121269 0.92685187 -0.28710365 0.013264012 0.95780766 0.062773742
-0.018551687 0.26206955 0.90908426 -0.30590618 0.20254895 0.93026626 0.062773742
0.21882656 0.21592256 1.0038201 -0.40011129 0.026425118 0.91608554 0.062773742
0.31279805 0.21887133 1.0490533 -0.46872395 -0.039691813 0.88245249 0.062773742
0.26019827 0.15719087 1.021172 -0.39590928 -0.039725386 0.91742998 0.062773742
0.14765634 0.38635549 0.93701273 -0.42422968 0.3499096 0.83521998 0.062773742
0.4180406 0.1093332 1.0932045 -0.47964048 -0.14506698 0.86539042 0.062773742
0.75343341 -0.47691268 1.5287205 -0.4173784 0.78876287 0.45127425 0.062773742
0.10318701 -0.036826733 0.95951706 -0.30291131 -0.0075289067 0.95298898 0.062773742
-0.42010495 -0.15173367 0.72474515 -0.54462117 -0.30747196 0.78028762 0.062773742
-0.31417382 0.20110358 0.82995927 -0.29996079 0.11834384 0.94658244 0.062773742
-0.44953084 -0.14643958 0.70583868 -0.55923849 -0.33854413 0.75672996 0.062773742
-0.24203511 -0.21409397 0.81993842 -0.48540306 -0.092646912 0.86936784 0.062773742
-0.42546186 -0.41401735 0.61114341 -0.82895577 -0.18302429 0.52852094 0.062773742
0.23312324 -0.055980619 1.0025702 -0.32905155 0.010110565 0.94425786 0.062773742
-0.19794992 0.21029824 0.86406112 -0.28139591 0.14342004 0.9488135 0.062773742
-0.26663971 0.2350776 0.83911145 -0.28539488 0.18957768 0.93947327 0.062773742
-0.30435312 -0.11498627 0.80382597 -0.43858555 -0.18790029 0.87882662 0.062773742
0.015134835 0.27447867 0.91766471 -0.31958947 0.2118146 0.92357844 0.062773742
-0.091481879 0.33728805 0.86127514 -0.29403698 0.37212688 0.88037711 0.062773742
0.37153476 0.11706991 1.069705 -0.44911385 -0.11471368 0.88607985 0.062773742
0.15571408 0.25437021 0.97418159 -0.38008749 0.1104584 0.91833133 0.062773742
0.18598896 0.36850581 0.96364218 -0.45048225 0.2822338 0.84700048 0.062773742
0.35515222 -0.48988524 1.2767917 -0.30839926 0.77721602 0.54847533 0.062773742
0.32358 -0.018170521 1.0364221 -0.36840078 -0.033259872 0.9290719 0.062773742
-0.4050664 -0.2512593 0.69712251 -0.63722259 -0.27742928 0.71901345 0.062773742
-0.22631946 -0.49366874 0.88040304 -0.66409671 0.40949968 0.62552822 0.062773742
-0.32266352 -0.43116319 0.74880236 -0.7601133 0.076743156 0.64524275 0.062773742
