# .PCD v0.7 - Point Cloud Data file format
VERSION 0.7
FIELDS x y z normal_x normal_y normal_z curvature
SIZE 4 4 4 4 4 4 4
TYPE F F F F F F F
COUNT 1 1 1 1 1 1 1
WIDTH 161
HEIGHT 1
VIEWPOINT 0 0 0 1 0 0 0
POINTS 161
DATA ascii
-0.87908995 -0.64554203 -0.030816404 -0.59463143 0.036740124 0.80315852 0.12309787
-0.78476262 -0.66224438 0.046479497 -0.66423166 -0.076045416 0.74364871 0.12309787
-0.35699612 -0.24429703 -0.19542716 -0.31126344 0.95028615 0.0084423181 0.12309787
-0.87563175 -0.63644809 -0.02881008 -0.60162932 0.065551706 0.79608113 0.12309787
-0.93110406 -0.62735802 -0.068547755 -0.52990144 0.14050224 0.83633941 0.12309787
-0.64489371 -1.2049699 0.32581946 -0.48109913 0.85113239 0.21004103 0.12309787
-0.37521818 -0.59883368 0.36105391 -0.33611798 -0.12947935 0.93287718 0.12309787
-0.6867041 -0.98299855 0.042899951 -0.71528625 -0.082246892 0.69397485 0.12309787
-0.30723035 -0.8056615 0.34202388 -0.27575788 -0.14654508 0.94999057 0.12309787
-0.60640216 -0.67126423 0.20710257 -0.63285899 -0.17782825 0.75356925 0.12309787
-0.4635295 -0.47483084 0.31349814 -0.53163272 0.25960484 0.80620837 0.12309787
-0.90152663 -1.1263771 -0.15021211 -0.55553287 0.093200289 0.82625479 0.12309787
-0.63741893 -0.44911954 0.12348939 -0.6487624 0.58770239 0.48343897 0.12309787
-0.65740311 -1.1501809 0.15824603 -0.67318034 0.62523943 0.39484671 0.12309787
-0.97768116 -0.94852144 -0.15847208 -0.35115421 -0.28014913 0.89342439 0.12309787
-1.0340112 -1.1184062 -0.21343233 -0.29334414 -0.051098362 0.95464033 0.12309787
-0.75790226 -1.2923712 0.83516628 -0.17950536 0.98289663 0.041133989 0.12309787
-0.87628138 -0.63835126 -0.029150883 -0.60029715 0.059346031 0.79757214 0.12309787
-0.82015467 -0.82751471 -0.026717363 -0.57616073 -0.27697849 0.76897448 0.12309787
-0.93397033 -0.63131696 -0.069719255 -0.52517492 0.1269237 0.8414759 0.12309787
-0.64922827 -0.68788552 0.16585056 -0.65372974 -0.18668267 0.73333961 0.12309787
-0.54360944 -0.84924442 0.20496516 -0.61314392 -0.19589588 0.76529694 0.12309787
-0.96822459 -1.1843446 -0.17949626 -0.4726195 0.25143525 0.84463668 0.12309787
-0.83517408 -1.1041883 -0.10201951 -0.6494692 0.096411929 0.754251 0.12309787
-0.69785386 -1.2705188 0.67357486 -0.23891953 0.96838051 0.071809426 0.12309787
-0.36328244 -1.0249181 0.34484649 -0.41272104 0.46922207 0.78069967 0.12309787
-0.55394751 -1.1610813 0.35174268 -0.47200701 0.81977677 0.32430759 0.12309787
-0.31230828 -1.2263085 0.71382147 0.0028175388 0.95544368 0.29515994 0.12309787
-0.89874291 -0.67844331 -0.04503046 -0.5569517 -0.051494487 0.82894701 0.12309787
-1.0057164 -0.9290567 -0.16258211 -0.30855563 -0.28830108 0.90646338 0.12309787
-0.46672735 -0.56747943 0.32199198 -0.4956142 -0.04379227 0.86743808 0.12309787
-0.71516776 -1.1161624 0.034310691 -0.75049734 0.35257289 0.55896878 0.12309787
-0.54902917 -0.56487685 0.26651847 -0.61463314 0.012800447 0.78870922 0.12309787
-0.88360685 -0.5996452 -0.041411266 -0.5957129 0.21714517 0.77328789 0.12309787
-0.80571395 -0.62523323 0.028555203 -0.66897064 0.047170099 0.74179053 0.12309787
-0.6924628 -0.59403658 0.13655193 -0.70682597 0.046013221 0.70588934 0.12309787
-0.38156819 -0.59299016 0.35950628 -0.34746751 -0.11978874 0.93000913 0.12309787
-0.80530781 -1.1101081 -0.073410943 -0.69243699 0.16443184 0.70249069 0.12309787
-0.36577842 -1.0873821 0.39775237 -0.3308951 0.71976978 0.61027855 0.12309787
-0.47409433 -0.67509621 0.30049086 -0.48741177 -0.20451725 0.84888309 0.12309787
-0.51590258 -0.80560887 0.23771985 -0.56796443 -0.2207071 0.79290909 0.12309787
-0.83569658 -1.1493316 -0.090600684 -0.67176008 0.28775042 0.68259656 0.12309787
-0.59945107 -0.7060985 0.20368727 -0.62139863 -0.21694465 0.75286037 0.12309787
-0.68017471 -0.6879701 0.13784926 -0.66415286 -0.17676455 0.72639883 0.12309787
-0.71492785 -0.65156299 0.11246429 -0.68436372 -0.093870342 0.72307307 0.12309787
-0.43950412 -0.55201304 0.33731222 -0.45670772 -0.019022796 0.88941342 0.12309787
-0.7933414 -1.2854484 0.37665448 -0.40337977 0.91337812 0.055001929 0.12309787
-0.9516049 -0.65771371 -0.077635206 -0.49240762 0.041544907 0.86937261 0.12309787
-0.82589996 -0.94467503 -0.072195686 -0.57404602 -0.244746 0.78139013 0.12309787
-0.86544031 -0.58970958 -0.029940121 -0.61661685 0.24303278 0.74881154 0.12309787
-0.71633607 -0.61761469 0.11354221 -0.70001298 -0.0055187289 0.71410877 0.12309787
-0.82149762 -0.56716496 0.00055291661 -0.65733337 0.29604727 0.69301432 0.12309787
-0.8584066 -0.6529609 -0.014947413 -0.61403644 -0.0016267648 0.789276 0.12309787
-0.85984594 -0.67612725 -0.017074434 -0.60161912 -0.066723667 0.79599142 0.12309787
-0.7636162 -0.64781994 0.067020372 -0.67960376 -0.05320676 0.73164725 0.12309787
-0.90457833 -0.68084943 -0.049062908 -0.54848981 -0.054990575 0.83434701 0.12309787
-0.87528193 -0.60334837 -0.033944305 -0.60660249 0.19374579 0.77103561 0.12309787
-0.81069952 -0.45764369 -0.097726993 -0.49091497 0.76287514 0.42074227 0.12309787
-0.64928186 -0.73566955 0.15191181 -0.64412278 -0.23344393 0.72842968 0.12309787
-0.67061067 -0.73776048 0.13223077 -0.64939559 -0.23275414 0.72395504 0.12309787
-0.63739169 -0.77719182 0.14845222 -0.63952136 -0.25110739 0.72660685 0.12309787
-0.84557867 -0.68150818 -0.0066478811 -0.61240947 -0.088142559 0.78561151 0.12309787
-0.52126461 -0.44330406 0.25199869 -0.6073032 0.46519962 0.64402807 0.12309787
-0.54506475 -0.4728882 0.24807933 -0.63607264 0.35895252 0.6830554 0.12309787
-0.69577813 -0.73822492 0.10941543 -0.65202957 -0.22996821 0.72247636 0.12309787
-0.71851957 -0.68532699 0.10317557 -0.6693188 -0.15799259 0.72598261 0.12309787
-0.61784863 -0.66628754 0.1985237 -0.64239681 -0.16715837 0.74792004 0.12309787
-0.24670732 -1.0450804 0.40251133 -0.18466198 0.58939958 0.78645289 0.12309787
-0.52405787 -0.54960078 0.28486845 -0.58912987 0.03981455 0.80705684 0.12309787
-0.64986616 -1.2385826 0.49873915 -0.3354173 0.93334675 0.12790276 0.12309787
-0.59171432 -1.1450101 0.25834599 -0.58982003 0.71547878 0.37443617 0.12309787
-0.61112344 -0.71222216 0.19216408 -0.62850279 -0.22036804 0.74593711 0.12309787
-0.70111156 -1.1181396 0.054898571 -0.74859613 0.38957918 0.53649968 0.12309787
-0.61335599 -1.1257542 0.19351017 -0.67019278 0.59722263 0.44064367 0.12309787
-0.65717947 -1.1285059 0.12935352 -0.71399385 0.52637666 0.46167135 0.12309787
-0.66257524 -1.1585815 0.16325466 -0.66008645 0.65252447 0.37215281 0.12309787
-0.44775346 -0.52639711 0.33240497 -0.48180059 0.057482488 0.87439346 0.12309787
-0.56421435 -0.46769175 0.22645392 -0.65060413 0.40648583 0.64146984 0.12309787
-0.33761835 -0.62237215 0.36955965 -0.27342904 -0.16059923 0.94839042 0.12309787
-0.30914322 -1.1971195 0.62739587 -0.043988891 0.93691128 0.34678841 0.12309787
-0.39151406 -1.0293387 0.33144698 -0.46187744 0.46778795 0.75355405 0.12309787
-0.78645629 -0.67832947 0.042939499 -0.65535253 -0.11236373 0.74691862 0.12309787
-0.79131866 -0.65291595 0.041400805 -0.66555279 -0.047737572 0.74482256 0.12309787
-0.98093593 -1.1530284 -0.19229907 -0.42195153 0.10390884 0.90064412 0.12309787
-1.2280656 -0.94514704 -0.20161681 0.0039509572 -0.26267624 0.96487594 0.12309787
-0.64707738 -0.55543119 0.1773677 -0.7037068 0.1344825 0.69764692 0.12309787
-0.69109964 -0.59524542 0.13798949 -0.70609337 0.040822499 0.70694107 0.12309787
-0.83749896 -1.0629532 -0.1052086 -0.61698246 -0.042594526 0.78582335 0.12309787
-0.9335776 -1.1699066 -0.16281097 -0.52842081 0.2327186 0.81646401 0.12309787
-0.91805017 -0.99778628 -0.14568692 -0.4533008 -0.22587498 0.8622638 0.12309787
-1.1970228 -0.89710164 -0.18779911 -0.041983932 -0.26497564 0.9633407 0.12309787
-0.57711834 -0.63878316 0.23785004 -0.61680889 -0.1391664 0.7747125 0.12309787
-0.79286945 -0.6617347 0.039327759 -0.66041392 -0.069722928 0.74765778 0.12309787
-0.12335097 -1.2841104 0.84093869 0.15943873 0.94072276 0.29936591 0.12309787
-0.70989573 -0.58609229 0.11814842 -0.71150237 0.090315983 0.69685531 0.12309787
-0.50501931 -0.7584812 0.25873116 -0.53953755 -0.2340558 0.80877507 0.12309787
-0.70312393 -0.63082123 0.12584554 -0.69290715 -0.051884811 0.71915758 0.12309787
-0.69631779 -0.57448608 0.1303578 -0.71356773 0.11781974 0.69060814 0.12309787
-0.63240027 -0.54190236 0.18920629 -0.6991865 0.16985314 0.69446969 0.12309787
-0.76805288 -1.2377995 0.13817175 -0.57123232 0.79020172 0.22197944 0.12309787
-0.64486325 -1.0612266 0.0979679 -0.7573266 0.23880455 0.60780656 0.12309787
-0.82792515 -1.0599902 -0.097411811 -0.62918508 -0.040638112 0.77619243 0.12309787
-0.73227847 -1.1043935 0.0060293181 -0.74905276 0.26586616 0.6068238 0.12309787
-0.64701968 -0.49825498 0.15533575 -0.69858718 0.37668544 0.60834533 0.12309787
-0.3803888 -0.51706415 0.3636553 -0.3674517 0.045687348 0.92891973 0.12309787
-0.4054873 -0.51161617 0.35259676 -0.414974 0.076472901 0.90661371 0.12309787
-0.33622536 -0.57922655 0.3760668 -0.27318919 -0.1049019 0.95622343 0.12309787
-0.6388371 -0.67280418 0.17873435 -0.6531989 -0.16929601 0.73801768 0.12309787
-0.64064062 -0.74444324 0.15667669 -0.64035946 -0.23943701 0.72980112 0.12309787
-0.72937745 -1.2257706 0.19514525 -0.5559665 0.80433083 0.20965016 0.12309787
-0.58668196 -0.4724822 0.20610298 -0.66624963 0.41349673 0.62058997 0.12309787
-0.76775908 -1.1503642 -0.012172152 -0.72422105 0.41387883 0.55155075 0.12309787
-0.92737031 -1.0954494 -0.16690324 -0.48418757 -0.037298054 0.87416887 0.12309787
-0.80692869 -1.1762888 -0.041943036 -0.69317472 0.4670634 0.54896313 0.12309787
-0.49607983 -0.98430032 0.23485956 -0.64469969 0.15780844 0.74796981 0.12309787
-0.56439155 -0.69527704 0.23463807 -0.59349245 -0.21265046 0.77623868 0.12309787
-0.67344129 -0.37411025 -0.12224981 -0.42083314 0.88536423 0.19755925 0.12309787
-0.83826059 -0.41224703 -0.23630564 -0.31342259 0.90037948 0.30179971 0.12309787
-0.92165571 -0.56331307 -0.084575124 -0.52123749 0.41723877 0.74446172 0.12309787
-0.89518851 -0.65699178 -0.042044241 -0.5709849 0.010093867 0.82089847 0.12309787
-0.79414433 -1.0798589 -0.067422681 -0.68813586 0.064934701 0.72267038 0.12309787
-0.53650677 -0.75026047 0.23923175 -0.57046998 -0.23828179 0.78599352 0.12309787
-0.30723035 -0.8056615 0.34202388 -0.27575788 -0.14654508 0.94999057 0.12309787
-0.48885405 -1.0167243 0.25132909 -0.63431263 0.30167273 0.71178722 0.12309787
-0.20301566 -0.9206109 0.36176363 -0.14649923 0.12840322 0.98084176 0.12309787
-0.65222245 -0.69029999 0.16255943 -0.65431881 -0.18889575 0.73224676 0.12309787
-0.51688397 -0.74322253 0.25516909 -0.54882187 -0.23545 0.80209589 0.12309787
-0.78810996 -0.6391266 0.044848204 -0.67361158 -0.011125404 0.73900181 0.12309787
-0.83989537 -0.65849805 -0.00036407996 -0.62892556 -0.030586099 0.77686363 0.12309787
-0.46644858 -0.68392342 0.30266812 -0.47721341 -0.21091452 0.85310167 0.12309787
-0.61397129 -0.69064742 0.19583645 -0.63372171 -0.19932801 0.74743909 0.12309787
-0.62610883 -0.64719456 0.19520034 -0.6543414 -0.13273878 0.74445802 0.12309787
-0.63004673 -1.11867 0.15949787 -0.7033506 0.53322053 0.47007847 0.12309787
-0.3646985 -1.1376839 0.47392532 -0.22555582 0.85844433 0.46064943 0.12309787
-0.88322687 -0.67413908 -0.03405875 -0.57752329 -0.048166472 0.81495208 0.12309787
-0.74342388 -1.1173947 -0.0016504962 -0.74382061 0.30412117 0.5951817 0.12309787
-0.87628138 -0.63835126 -0.029150883 -0.60029715 0.059346031 0.79757214 0.12309787
-0.74596697 -0.68366504 0.078322046 -0.66690975 -0.14306562 0.73127532 0.12309787
-0.93397033 -0.63131696 -0.069719255 -0.52517492 0.1269237 0.8414759 0.12309787
-0.39947543 -0.57509631 0.35445285 -0.38116768 -0.084997222 0.9205904 0.12309787
-0.53272849 -0.55965048 0.27883124 -0.59624708 0.016138909 0.80263871 0.12309787
-0.69878823 -0.66604561 0.12535948 -0.67630333 -0.13255447 0.72459859 0.12309787
-0.7597459 -0.65998441 0.069438823 -0.67486507 -0.085973971 0.73291582 0.12309787
-1.6729728 -1.1030904 -0.14155102 0.33949986 -0.1296117 0.93163329 0.12309787
-0.53621542 -0.34397954 0.058892839 -0.47597954 0.85030591 0.22455136 0.12309787
-0.87797689 -0.54358977 -0.063362285 -0.56712902 0.46975482 0.67653167 0.12309787
-0.64649743 -0.58142865 0.18117076 -0.69473904 0.043598071 0.71793932 0.12309787
-1.040422 -1.2564076 -0.18409334 -0.38742644 0.50470591 0.77147436 0.12309787
-0.53768784 -1.1519228 0.35240358 -0.47228682 0.80791688 0.35244215 0.12309787
-0.49108627 -0.92019224 0.23451708 -0.60884625 -0.039456613 0.79230636 0.12309787
-0.38065875 -1.1183281 0.43200204 -0.29287323 0.80940789 0.5090031 0.12309787
-1.0028596 -1.1956377 -0.19399932 -0.41267994 0.25832054 0.87347913 0.12309787
-0.35325775 -0.65643775 0.35842457 -0.30104208 -0.18942778 0.93460727 0.12309787
-0.61529487 -0.66223335 0.20160525 -0.64184207 -0.16205147 0.74951857 0.12309787
-0.53879458 -0.50679505 0.26686603 -0.62543344 0.20567563 0.75268221 0.12309787
-0.61908239 -0.55703884 0.20511924 -0.68658215 0.099103495 0.72026622 0.12309787
-0.93207949 -1.0904781 -0.16920708 -0.47191826 -0.055302914 0.87990612 0.12309787
-0.21225265 -0.96972775 0.37095463 -0.16274583 0.29588485 0.94125766 0.12309787
-0.33987865 -0.71749103 0.34950158 -0.29305723 -0.20594662 0.93365061 0.12309787
-0.3784751 -0.58661062 0.36144084 -0.34321946 -0.11014017 0.9327752 0.12309787
-0.84207827 -0.70384383 -0.0071958704 -0.60382432 -0.13933977 0.78484434 0.12309787
