# .PCD v0.7 - Point Cloud Data file format
VERSION 0.7
FIELDS x y z normal_x normal_y normal_z curvature
SIZE 4 4 4 4 4 4 4
TYPE F F F F F F F
COUNT 1 1 1 1 1 1 1
WIDTH 142
HEIGHT 1
VIEWPOINT 0 0 0 1 0 0 0
POINTS 142
DATA ascii
-1.3160462 -1.0535672 0.1505612 0.41893548 -0.26143336 -0.86956638 0.1285405
-1.4326406 -2.8015661 0.90953362 -0.075138591 -0.89575291 -0.43815634 0.1285405
-1.3079709 -1.7648314 0.21062605 0.46985233 -0.034993038 -0.88205117 0.1285405
-1.8897711 -1.8034608 -0.035950057 0.37263674 -0.18552977 -0.90924174 0.1285405
-1.3184037 -1.0860275 0.15854198 0.43280491 -0.22896728 -0.87192541 0.1285405
-1.1203135 -1.5700171 0.33246666 0.62104887 0.023767054 -0.78341138 0.1285405
-1.7207552 -2.0830634 0.11383132 0.25025466 -0.40472493 -0.87952846 0.1285405
-1.6350628 -1.7885523 0.063885272 0.3739534 -0.11638282 -0.92011625 0.1285405
-1.6161689 -1.9665189 0.1054426 0.32368383 -0.24640284 -0.91351759 0.1285405
-1.5423417 -1.6724119 0.093480118 0.4062866 -0.046366222 -0.91256857 0.1285405
-1.752552 -1.8968009 0.03833494 0.33571675 -0.22839783 -0.91385376 0.1285405
-0.90952969 -1.8546346 0.51800722 0.77699018 0.078947753 -0.62454265 0.1285405
-0.93249857 -1.6183341 0.5232538 0.81198674 0.086868055 -0.57717538 0.1285405
-1.402162 -0.80328226 0.0087038958 0.22637637 -0.49062622 -0.84145093 0.1285405
-1.1613208 -0.89790469 0.15371773 0.37453192 -0.51236612 -0.77279156 0.1285405
-1.2136766 -0.99769843 0.18168458 0.43650883 -0.3640694 -0.82274753 0.1285405
-1.0604372 -1.7850819 0.3721312 0.63479829 0.029084973 -0.77213025 0.1285405
-0.81483817 -0.78952634 0.26454979 0.42789972 -0.80272669 -0.41536933 0.1285405
-1.3408403 -1.0842937 0.14713795 0.42218047 -0.22323611 -0.87859505 0.1285405
-0.97528857 -1.0991029 0.41739994 0.74049491 -0.30102673 -0.60087454 0.1285405
-0.90831339 -1.0856092 0.50926441 0.83569074 -0.30736282 -0.45513633 0.1285405
-0.98125815 -1.0387434 0.37627509 0.68164182 -0.39045793 -0.6187948 0.1285405
-1.493945 -2.0695138 0.17876005 0.30950645 -0.29820162 -0.90292943 0.1285405
-1.1568886 -0.98164731 0.20548394 0.45830515 -0.40916103 -0.78901434 0.1285405
-1.3660067 -0.71485168 -0.042247407 0.14996673 -0.59954619 -0.78616434 0.1285405
-1.8971723 -2.1527629 0.10862455 0.18138725 -0.55880719 -0.80921763 0.1285405
-1.4072505 -0.7990939 0.0048998976 0.22255805 -0.49240443 -0.84143078 0.1285405
-1.1832544 -1.0857195 0.23355091 0.51217365 -0.27363336 -0.81412709 0.1285405
-0.82210505 -0.96196157 0.58093554 0.85003924 -0.46925023 -0.23924366 0.1285405
-0.91941255 -1.8488085 0.50662738 0.76692289 0.075196773 -0.63731843 0.1285405
-1.6162733 -1.8235371 0.076224983 0.36836994 -0.13414194 -0.91995084 0.1285405
-1.7454861 -1.6773007 0.0066789188 0.38735348 -0.075443514 -0.91883928 0.1285405
-1.5771401 -1.7018508 0.079943977 0.39647934 -0.062102698 -0.9159407 0.1285405
-1.6033487 -1.6435537 0.065171428 0.3995434 -0.044703901 -0.91562361 0.1285405
-1.1320387 -1.1280233 0.2820507 0.57541704 -0.24101165 -0.78154242 0.1285405
-1.4090325 -1.2093996 0.1370552 0.43286061 -0.10946375 -0.89479011 0.1285405
-0.92321134 -1.0928564 0.48795417 0.81631279 -0.30188233 -0.49244341 0.1285405
-0.95387584 -0.98882556 0.37105861 0.66162884 -0.47315577 -0.58169657 0.1285405
-0.83312052 -1.0731429 0.73414487 0.96559721 -0.22625268 -0.12818649 0.1285405
-1.0152159 -1.0029209 0.31941524 0.60246056 -0.43684667 -0.66798675 0.1285405
-1.195091 -0.89497805 0.13604851 0.35636187 -0.49792737 -0.79061657 0.1285405
-0.85032767 -1.1933253 0.74495018 0.98013091 -0.086245127 -0.17862009 0.1285405
-1.0838248 -1.0539871 0.29027784 0.57664669 -0.34409004 -0.74099976 0.1285405
-1.2382581 -1.1354644 0.21441256 0.49684078 -0.20612881 -0.84300661 0.1285405
-1.3197738 -1.0983009 0.16099605 0.43727875 -0.21706477 -0.87273717 0.1285405
-1.3584043 -1.1086929 0.14449909 0.4244006 -0.19597377 -0.8840127 0.1285405
-1.0142964 -1.7532998 0.41454729 0.68683547 0.052130762 -0.72494096 0.1285405
-1.1619904 -1.0812335 0.2456592 0.52583843 -0.28554311 -0.80122346 0.1285405
-1.1351349 -1.0905069 0.26726571 0.55327946 -0.28301936 -0.78344232 0.1285405
-0.81895185 -1.4346061 1.0325881 0.98709726 0.15607268 0.035780977 0.1285405
-1.2563591 -0.73641247 -0.0018594981 0.17537835 -0.63643527 -0.75112754 0.1285405
-1.808751 -0.74428165 -0.1156892 0.21168053 -0.34738964 -0.91351616 0.1285405
-0.85261393 -0.96718472 0.50498855 0.7934683 -0.4940933 -0.35535878 0.1285405
-1.0290482 -1.1221653 0.36801112 0.68270946 -0.26709974 -0.68012172 0.1285405
-0.84847319 -1.42781 0.74380308 0.96361202 0.084373109 -0.25363964 0.1285405
-1.3900794 -0.7396636 -0.029021157 0.17225325 -0.56286019 -0.80840409 0.1285405
-1.481203 -0.84657031 0.0091399569 0.25351778 -0.40396807 -0.87894171 0.1285405
-1.3702394 -1.6752204 0.17525053 0.45607403 -0.022148946 -0.8896662 0.1285405
-1.5981841 -1.7568625 0.075535536 0.38470989 -0.091056272 -0.91853529 0.1285405
-1.6276965 -1.9152592 0.088623039 0.34050506 -0.20560572 -0.91748708 0.1285405
-1.6402775 -1.8158857 0.065511972 0.36727896 -0.13485309 -0.92028302 0.1285405
-1.6987425 -1.7660075 0.035195258 0.37364221 -0.11595829 -0.92029625 0.1285405
-1.4229085 -1.7726904 0.15387249 0.42249006 -0.063224211 -0.90415972 0.1285405
-1.6405493 -0.69563371 -0.10392725 0.15312743 -0.47876033 -0.8644886 0.1285405
-1.6174319 -0.65017778 -0.12734702 0.11648845 -0.53472221 -0.83696032 0.1285405
-0.97277433 -0.95729303 0.32507467 0.59462142 -0.51882571 -0.61420298 0.1285405
-1.1963456 -0.95026022 0.16757116 0.40782049 -0.42969942 -0.80563074 0.1285405
-1.5447999 -1.5709739 0.088693634 0.41447517 -0.022679457 -0.909778 0.1285405
-0.94453669 -1.5658765 0.51367944 0.80959231 0.072923042 -0.58244532 0.1285405
-0.8925944 -1.2084124 0.60503286 0.91779923 -0.12462794 -0.37697807 0.1285405
-1.3868361 -0.98154849 0.096013837 0.3553102 -0.30658609 -0.88304001 0.1285405
-0.77088749 -1.8260409 0.7991429 0.94906473 0.17943811 -0.25899449 0.1285405
-1.0339079 -1.9604295 0.39219862 0.61449718 -0.027071219 -0.78845441 0.1285405
-1.9015267 -0.75607252 -0.13422975 0.23812966 -0.29182839 -0.92635334 0.1285405
-1.6988803 -0.61617321 -0.15956959 0.10559867 -0.52740324 -0.84302711 0.1285405
-1.1519033 -1.8065896 0.30425069 0.55505818 -0.0071750162 -0.83178055 0.1285405
-1.2104324 -1.7820498 0.26660389 0.52038085 -0.01640356 -0.85377669 0.1285405
-1.3369063 -1.79049 0.1968251 0.45197329 -0.051247463 -0.89055818 0.1285405
-0.91944319 -1.1181327 0.50910491 0.83953243 -0.26192346 -0.47600561 0.1285405
-1.6275278 -1.7453887 0.062145237 0.38303301 -0.090632915 -0.91927767 0.1285405
-1.3575354 -1.1221226 0.14781116 0.42951187 -0.18484358 -0.88394141 0.1285405
-0.87189883 -1.0259272 0.5329057 0.84225368 -0.39000162 -0.37216592 0.1285405
-0.90082395 -1.1080409 0.53836691 0.86450225 -0.26761723 -0.42546076 0.1285405
-0.85683733 -0.95190185 0.47493681 0.7576533 -0.5286985 -0.38267395 0.1285405
-1.3913788 -0.74606109 -0.024885625 0.17789431 -0.55577439 -0.81207663 0.1285405
-1.1426712 -1.0356346 0.24014725 0.51151592 -0.34707251 -0.78606117 0.1285405
-1.3295143 -0.77931064 0.012803706 0.21153125 -0.55465698 -0.80474228 0.1285405
-0.9382906 -1.0931823 0.46438807 0.79220903 -0.30556977 -0.52823478 0.1285405
-1.0058786 -1.0254095 0.3424803 0.63689989 -0.40599883 -0.65538043 0.1285405
-0.78880763 -1.6078691 0.95526791 0.97946769 0.19230013 -0.060528748 0.1285405
-1.524001 -2.0445931 0.16039519 0.31187651 -0.28572789 -0.90614164 0.1285405
-1.4458574 -1.8502475 0.1506879 0.39923501 -0.10788628 -0.91047895 0.1285405
-1.3760897 -1.0881439 0.13148648 0.40975583 -0.20836689 -0.88807851 0.1285405
-1.5059209 -0.68479586 -0.08805149 0.13026951 -0.55698627 -0.82024151 0.1285405
-1.247198 -1.0275944 0.17626037 0.43814966 -0.31541219 -0.84174818 0.1285405
-1.3160462 -1.0535672 0.1505612 0.41893548 -0.26143336 -0.86956638 0.1285405
-1.3060139 -0.73725253 -0.012505116 0.17286573 -0.60944146 -0.77375615 0.1285405
-0.98385757 -1.1131393 0.41370341 0.73748571 -0.28145191 -0.61392152 0.1285405
-1.0234175 -1.5124931 0.4229078 0.72573197 0.032984138 -0.68718642 0.1285405
-0.99512535 -1.0190502 0.3490586 0.64357853 -0.4179872 -0.64116561 0.1285405
-1.8897711 -1.8034608 -0.035950057 0.37263674 -0.18552977 -0.90924174 0.1285405
-1.0768559 -1.1545508 0.33443266 0.64247334 -0.22202542 -0.73343897 0.1285405
-0.92368585 -1.8087658 0.5064351 0.77279347 0.082590036 -0.62926084 0.1285405
-1.2476902 -1.8110747 0.24560411 0.49241441 -0.036596611 -0.86959112 0.1285405
-2.2148819 -2.1545339 0.036831304 0.1743888 -0.70389986 -0.688559 0.1285405
-1.0304178 -1.098663 0.35692361 0.66685838 -0.29760343 -0.68317795 0.1285405
-1.3948184 -0.92525607 0.071563609 0.31876358 -0.36227077 -0.87587082 0.1285405
-1.6021782 -1.4630688 0.060585789 0.4077042 -0.016503401 -0.91296488 0.1285405
-1.9715705 -1.5225849 -0.10233667 0.42789328 -0.02701305 -0.90342551 0.1285405
-1.2062516 -1.7182646 0.26865813 0.53453153 0.00065203267 -0.84514827 0.1285405
-0.83479017 -1.0503672 0.68532443 0.9432525 -0.28249162 -0.17456572 0.1285405
-1.8336865 -2.6491086 3.5360181 0.71508133 -0.34980789 0.60522157 0.1285405
-1.3184037 -1.0860275 0.15854198 0.43280491 -0.22896728 -0.87192541 0.1285405
-1.3234792 -1.0615069 0.14931835 0.41951159 -0.25087711 -0.87239367 0.1285405
-1.3575354 -1.1221226 0.14781116 0.42951187 -0.18484358 -0.88394141 0.1285405
-1.3831434 -1.0847017 0.12744209 0.40583628 -0.20912682 -0.88969821 0.1285405
-1.4009957 -1.1661127 0.13490306 0.42569941 -0.13967723 -0.89401919 0.1285405
-1.5766039 -1.3941724 0.070660084 0.40974569 -0.021972697 -0.91193515 0.1285405
-1.1774951 -1.1216977 0.24853469 0.53425163 -0.23626681 -0.81163609 0.1285405
-0.92787993 -1.2176902 0.53482455 0.86434281 -0.13594674 -0.48417968 0.1285405
-0.86683124 -1.0300047 0.54913455 0.85673481 -0.37766591 -0.35124627 0.1285405
-1.0825349 -1.7330971 0.3562158 0.62611568 0.031508915 -0.77909327 0.1285405
-1.4691212 -0.7101714 -0.064678378 0.14851871 -0.55106527 -0.82113904 0.1285405
-1.4155079 -1.150159 0.12552449 0.41622856 -0.14751388 -0.89721429 0.1285405
-1.5999185 -1.7636249 0.075495183 0.38323885 -0.09494739 -0.91875619 0.1285405
-1.5974232 -1.7834437 0.078689821 0.37978116 -0.10533513 -0.91905969 0.1285405
-1.4410579 -0.82553583 0.010271478 0.24107237 -0.44660559 -0.86164236 0.1285405
-0.92295682 -1.6459814 0.5324471 0.81676835 0.093881525 -0.56927645 0.1285405
-0.87414891 -1.7144339 0.59529334 0.8587569 0.12038826 -0.49803936 0.1285405
-1.4388188 -1.9518954 0.16925977 0.37320688 -0.17450432 -0.91118872 0.1285405
-1.4357481 -1.6185056 0.141149 0.43871367 -0.020270864 -0.89839822 0.1285405
-1.3532349 -1.0763872 0.13923268 0.41377628 -0.22643495 -0.88176888 0.1285405
-1.3972763 -1.116676 0.12788761 0.41235214 -0.17794785 -0.89347649 0.1285405
-1.594648 -1.7379913 0.075257935 0.38844088 -0.08096981 -0.91790932 0.1285405
-0.86756945 -1.2716644 1.2340661 0.97184408 0.12771532 0.19800967 0.1285405
-1.5794476 -1.6952025 0.07850197 0.39700976 -0.059813872 -0.91586328 0.1285405
-1.3571609 -1.1115689 0.14573146 0.42595389 -0.19387658 -0.88372797 0.1285405
-1.3308123 -0.95152307 0.10724255 0.35333306 -0.36369747 -0.8619048 0.1285405
-0.92766422 -1.0668234 0.46406385 0.78773648 -0.34454504 -0.51064664 0.1285405
-1.2644205 -1.7269052 0.23367277 0.49848115 -0.014291129 -0.86678272 0.1285405
-1.2243946 -1.1363724 0.2229161 0.50632745 -0.2089368 -0.83664685 0.1285405
-1.6356293 -1.702213 0.054950628 0.38891891 -0.071218058 -0.91851515 0.1285405
