# .PCD v0.7 - Point Cloud Data file format
VERSION 0.7
FIELDS x y z normal_x normal_y normal_z curvature
SIZE 4 4 4 4 4 4 4
TYPE F F F F F F F
COUNT 1 1 1 1 1 1 1
WIDTH 83
HEIGHT 1
VIEWPOINT 0 0 0 1 0 0 0
POINTS 83
DATA ascii
-0.24754816 -0.22367875 0.32940432 0.92698592 -0.022694467 0.3744089 0.1058192
-0.28107411 -0.30158129 0.81862003 0.86515558 -0.099976994 -0.49143711 0.1058192
-0.11708256 -0.22850204 0.96835536 0.49028543 -0.015137626 -0.87143046 0.1058192
-0.35190931 -0.42747128 0.60587502 0.9465614 -0.31446427 0.071650445 0.1058192
0.11460797 -0.0086164037 1.0370857 0.1701699 -0.13442332 -0.97620314 0.1058192
0.15370885 -0.18645425 1.0663521 0.24672279 -0.098333366 -0.96408421 0.1058192
0.35673881 -0.16276486 1.1082233 0.19927844 -0.22681861 -0.95333177 0.1058192
-0.31313819 -0.2066655 0.55767232 0.98937583 -0.0078621851 0.14516783 0.1058192
-0.29899162 -0.22419901 0.48489887 0.97048682 -0.026449971 0.23969916 0.1058192
0.011971272 -0.69458985 1.1040521 0.22072449 -0.32435632 -0.91982263 0.1058192
-0.32122701 -0.003880759 0.75944966 0.94517529 0.15656552 -0.28658494 0.1058192
-0.25702751 -0.027633235 0.86958361 0.75342697 0.11140562 -0.64802516 0.1058192
0.025988296 -0.16487226 1.0281867 0.31128946 -0.044971742 -0.94925046 0.1058192
-0.054093704 0.22375955 0.97765177 0.16073608 -0.13545871 -0.97765785 0.1058192
0.31957901 -0.63688105 1.1806928 0.36708325 -0.18500149 -0.91160536 0.1058192
0.5058977 -0.72916263 1.3163153 0.69384468 -0.21417588 -0.68753785 0.1058192
-0.44479033 -0.61346418 0.78283393 0.70110136 -0.67453671 -0.23120788 0.1058192
-0.30918625 -0.20250723 0.53383327 0.98379058 -0.0042524589 0.17927068 0.1058192
-0.19000621 -0.13283336 0.92176276 0.61532772 0.043708764 -0.78705865 0.1058192
-0.24720106 -0.19180024 0.86241072 0.78155136 0.02226411 -0.62344348 0.1058192
-0.027236592 0.20815918 0.984056 0.14236304 -0.1466514 -0.97889024 0.1058192
-0.023706 0.19412583 0.98664486 0.14886852 -0.14123102 -0.97871953 0.1058192
0.12766789 -0.14277072 1.0554423 0.23766795 -0.095413052 -0.966649 0.1058192
0.14111844 -0.18396096 1.0628574 0.25056833 -0.092894465 -0.96363175 0.1058192
-0.21559499 0.13081746 0.92524809 0.52127868 0.059828963 -0.85128665 0.1058192
-0.10633993 0.1100732 0.9745121 0.31687334 -0.032485407 -0.94791138 0.1058192
-0.24463713 -0.21812268 0.32254231 0.92531735 -0.017562011 0.37878674 0.1058192
0.1634098 0.12864792 1.016946 0.051308498 -0.23264249 -0.97120798 0.1058192
0.30848905 0.052912723 1.0441266 0.044093736 -0.29022959 -0.95594066 0.1058192
-0.12817083 -0.058926567 0.9645586 0.4580819 0.025995217 -0.88852978 0.1058192
-0.1971729 -0.10969725 0.91754395 0.62487358 0.054838713 -0.77879763 0.1058192
-0.26014942 -0.23797779 0.36046642 0.93485266 -0.036973938 0.35310543 0.1058192
-0.29184821 -0.29517975 0.4415772 0.95296395 -0.10195825 0.28541932 0.1058192
-0.31317508 -0.46816885 0.8406198 0.77009106 -0.36366451 -0.52412587 0.1058192
0.18601649 -0.07890477 1.0599475 0.17686754 -0.14957209 -0.97280318 0.1058192
0.036104973 -0.093083128 1.0274405 0.27261305 -0.059678603 -0.96027112 0.1058192
-0.064354986 -0.16697028 0.99399269 0.40345237 -0.010492085 -0.91494048 0.1058192
0.34154454 -1.3121607 1.5264837 0.33782563 -0.64955997 -0.68113559 0.1058192
0.023801865 -0.32504112 1.0361282 0.34636056 -0.06825161 -0.93561536 0.1058192
-0.35403964 -0.42977968 0.63351667 0.94604874 -0.32340214 0.020071954 0.1058192
-0.15519972 -0.34974426 0.95262998 0.53849989 -0.10145693 -0.83649528 0.1058192
0.19446442 -1.6571183 2.2449055 0.84009486 -0.43741375 0.32079569 0.1058192
-0.26108778 -0.062866502 0.85859394 0.78494269 0.10291376 -0.61096132 0.1058192
-0.27421838 -0.098113135 0.83381331 0.84236485 0.091956377 -0.53100419 0.1058192
-0.154875 -0.039006751 0.95078641 0.49852675 0.042005241 -0.86585599 0.1058192
0.14146413 -0.18233626 1.0627902 0.24971424 -0.093371734 -0.96380728 0.1058192
0.1214056 0.16527258 1.0061407 0.050890874 -0.22455356 -0.97313195 0.1058192
0.13623928 0.1289323 1.0152395 0.066458106 -0.21524616 -0.97429585 0.1058192
0.11820084 0.067004405 1.0257981 0.11914947 -0.17196697 -0.97787052 0.1058192
0.030783959 0.054434799 1.0138255 0.19250564 -0.10788767 -0.97534704 0.1058192
0.23412885 -0.096425168 1.0714375 0.17098142 -0.17235669 -0.97008169 0.1058192
-0.052692857 0.16815434 0.98474163 0.20056273 -0.1047466 -0.97406507 0.1058192
-0.31561536 -0.44327861 0.41887134 0.90435445 -0.2934663 0.30987191 0.1058192
-0.30963176 -0.4355664 0.4086706 0.90569472 -0.27979133 0.3184869 0.1058192
-0.10859443 -0.18282475 0.97265333 0.46960884 0.00023664278 -0.88287455 0.1058192
-0.067687191 -0.13243492 0.99223828 0.39649487 -0.0058475477 -0.91801834 0.1058192
0.058644772 0.041945938 1.0205615 0.17737849 -0.12075662 -0.97670603 0.1058192
-0.095300719 -0.00013418021 0.98042613 0.37259495 -0.0026491634 -0.92799032 0.1058192
0.20287395 -0.033160061 1.0549786 0.14113936 -0.17969126 -0.97354543 0.1058192
0.49891487 -0.068367958 1.1021986 0.12198416 -0.38188013 -0.91612631 0.1058192
0.23552147 -0.58118951 1.1393379 0.31562239 -0.16746281 -0.93399072 0.1058192
0.26540127 -0.43248531 1.1272142 0.31932142 -0.12508677 -0.93935466 0.1058192
0.22508571 -0.14408806 1.0775688 0.20253436 -0.14848618 -0.96795231 0.1058192
-0.32770205 -0.32100299 0.65073788 0.98852772 -0.14889945 -0.025334964 0.1058192
-0.28690493 -0.30942449 0.42043343 0.94504434 -0.11669729 0.30540621 0.1058192
-0.11636515 -0.02777114 0.9710936 0.42174158 0.016382586 -0.90656805 0.1058192
-0.19307159 0.097476527 0.93641222 0.49288657 0.048983157 -0.86871368 0.1058192
0.15161777 0.23742253 0.98783404 -0.014442371 -0.28035092 -0.95978892 0.1058192
0.11644758 0.21350142 0.99425375 0.02163573 -0.24669972 -0.96885043 0.1058192
0.21751112 -0.15311985 1.0773059 0.20967351 -0.14097242 -0.96755558 0.1058192
-0.26774228 -0.25294697 0.37908599 0.93922788 -0.052375317 0.33927545 0.1058192
0.13623928 0.1289323 1.0152395 0.066458106 -0.21524616 -0.97429585 0.1058192
0.32117611 0.09396106 1.0313969 0.010481866 -0.31701884 -0.94836134 0.1058192
0.14669864 -0.35672545 1.0802554 0.300596 -0.091750346 -0.94932812 0.1058192
-0.069501907 -0.13777725 0.99148226 0.40074927 -0.0054131015 -0.91617179 0.1058192
-0.34985295 -0.42313048 0.59816849 0.94836986 -0.30565912 0.084658854 0.1058192
-0.060351171 -0.21419105 0.99657321 0.40990594 -0.021171123 -0.91188204 0.1058192
0.1173014 -0.16923469 1.0552582 0.25487715 -0.084537886 -0.96327096 0.1058192
0.27272037 -0.13038123 1.0847217 0.18361171 -0.18308595 -0.96579826 0.1058192
0.23911919 -0.86989838 1.2203548 0.23661906 -0.35562378 -0.90418094 0.1058192
0.12690599 -0.11857846 1.0527999 0.22599548 -0.101548 -0.96882093 0.1058192
-0.33005849 -0.027750934 0.69883013 0.98218 0.14527158 -0.11924179 0.1058192
-0.28885677 -0.34428245 0.41093791 0.93606836 -0.15780871 0.31443983 0.1058192
