# .PCD v0.7 - Point Cloud Data file format
VERSION 0.7
FIELDS x y z normal_x normal_y normal_z curvature
SIZE 4 4 4 4 4 4 4
TYPE F F F F F F F
COUNT 1 1 1 1 1 1 1
WIDTH 140
HEIGHT 1
VIEWPOINT 0 0 0 1 0 0 0
POINTS 140
DATA ascii
-0.75902349 -0.71796846 0.024969811 0.49770361 -0.09050072 -0.86261272 0.14614904
-0.88224381 -0.57860184 -0.045461591 0.37423003 -0.04737775 -0.92612487 0.14614904
-0.51534927 -0.90162289 0.24876158 0.66417217 -0.25716254 -0.70195639 0.14614904
-0.63297361 -0.93801671 0.1540501 0.6377719 -0.21749954 -0.73887813 0.14614904
-0.59843981 -1.2600796 0.41262251 0.71045595 -0.59828413 -0.37055153 0.14614904
-0.44502524 -0.52839553 0.22827868 0.65634412 -0.084564984 -0.74970734 0.14614904
-0.87365443 -0.62222439 -0.039615717 0.3909781 -0.049470164 -0.91906953 0.14614904
-0.71117532 -0.23037557 0.008746299 0.48555067 -0.07586652 -0.87091035 0.14614904
-0.90421259 -0.61489159 -0.052501801 0.36682647 -0.040999923 -0.92938548 0.14614904
-0.78524059 -1.030947 0.053179748 0.60126382 -0.15993349 -0.78288132 0.14614904
-0.81451815 -1.0634112 0.037161574 0.60078788 -0.15000018 -0.78520942 0.14614904
0.023785453 -1.1314532 0.86528116 0.20128369 -0.69847578 -0.68674338 0.14614904
-0.2728318 -1.121092 0.6723876 0.50743186 -0.69417888 -0.51051795 0.14614904
-0.37714425 -0.5208745 0.28874397 0.67783874 -0.074656226 -0.73141038 0.14614904
-0.35417587 -0.75113398 0.3512944 0.67047095 -0.19775569 -0.7150954 0.14614904
-0.51851487 -0.69008398 0.19021569 0.63107103 -0.14119866 -0.76276624 0.14614904
-0.40477967 -0.56646699 0.2687425 0.66785902 -0.09601517 -0.7380687 0.14614904
-0.77500474 -1.4344636 0.87119108 0.45608982 -0.87340832 0.17070447 0.14614904
-0.51592731 -0.68371683 0.19118758 0.63153899 -0.13904743 -0.76277411 0.14614904
-0.51624089 -0.96869081 0.27558163 0.67713481 -0.31009641 -0.66732949 0.14614904
-0.7241953 -0.91695088 0.076065071 0.5848394 -0.15558243 -0.79608858 0.14614904
-0.89731371 -1.0293921 -0.024911001 0.52839112 -0.078233801 -0.84538883 0.14614904
-1.109533 -1.136151 -0.14098056 0.43760207 0.059758749 -0.89718074 0.14614904
-1.0842421 -1.1689347 -0.12992208 0.47299886 0.042527691 -0.88003606 0.14614904
-0.33541781 -0.7342394 0.36431801 0.67119968 -0.18777758 -0.71709871 0.14614904
-0.30428046 -0.92062438 0.46607611 0.64866382 -0.36543086 -0.66760433 0.14614904
-0.32546303 -0.63180852 0.35168511 0.67743039 -0.12327188 -0.72518414 0.14614904
-0.58358049 -0.70040751 0.14021684 0.6019907 -0.1330118 -0.78734684 0.14614904
-0.8214224 -1.11795 0.042836372 0.62756044 -0.16667348 -0.76051813 0.14614904
-0.87312567 -0.63417172 -0.038744293 0.39436758 -0.049750861 -0.91760504 0.14614904
-0.82122958 -0.66323519 -0.013030951 0.43955037 -0.065766022 -0.89580709 0.14614904
-0.95388538 -0.71327919 -0.068388611 0.35996529 -0.023906704 -0.93265933 0.14614904
-0.8007524 -0.57626075 -0.0094502037 0.43531013 -0.066248976 -0.89783973 0.14614904
-0.56211805 -0.76964748 0.17039272 0.62364948 -0.16476391 -0.76414275 0.14614904
-0.60135388 -0.72222584 0.13044775 0.59630907 -0.13621099 -0.79111445 0.14614904
-0.38383523 -1.1869613 0.6487146 0.54172039 -0.74681312 -0.38575792 0.14614904
-0.6905877 -1.2682108 0.26170304 0.75294852 -0.45277724 -0.47755763 0.14614904
-0.67321521 -1.0822746 0.16737415 0.68009126 -0.28234801 -0.67657626 0.14614904
-0.34202334 -0.58479625 0.32902417 0.67932898 -0.099447049 -0.72706425 0.14614904
-0.51025802 -0.7587381 0.21142992 0.64204454 -0.17344379 -0.74679047 0.14614904
-0.68500745 -0.67392385 0.064983822 0.5373345 -0.10328633 -0.83702064 0.14614904
-0.36681068 -0.60444289 0.30883056 0.67441028 -0.11094289 -0.72997427 0.14614904
-0.72623008 -1.4273373 0.72376889 0.54740167 -0.83375657 0.072121061 0.14614904
-0.67508101 -0.67383295 0.071400382 0.5437851 -0.10560286 -0.8325538 0.14614904
-0.59277111 -0.64946061 0.12534012 0.59001046 -0.11580843 -0.79904699 0.14614904
-0.66424674 -0.59236491 0.068770699 0.53789854 -0.092515938 -0.83791763 0.14614904
-0.51518476 -0.56718886 0.1739071 0.62521797 -0.099010028 -0.77414441 0.14614904
-0.76016396 -0.77079642 0.030129129 0.51183254 -0.099180482 -0.85334092 0.14614904
-0.38493237 -0.52840275 0.28233689 0.67535037 -0.078672312 -0.73328882 0.14614904
-0.72485691 -1.0882775 0.11955677 0.66267294 -0.23928362 -0.70965344 0.14614904
-0.65361053 -0.99756747 0.15447024 0.65146375 -0.23952213 -0.71987784 0.14614904
-0.43516579 -1.0317684 0.39987817 0.67534965 -0.43342087 -0.59669864 0.14614904
-0.33743024 -1.0715221 0.54516494 0.61247635 -0.56398493 -0.55388957 0.14614904
-0.76313198 -0.7501446 0.026034474 0.50377327 -0.094382092 -0.85866439 0.14614904
-0.75870627 -0.65891594 0.019268449 0.4835313 -0.082555078 -0.87142533 0.14614904
-0.7948547 -1.0818992 0.056569383 0.62275302 -0.17403223 -0.7628181 0.14614904
-0.45680863 -0.64689749 0.23485366 0.65134925 -0.13001826 -0.74755561 0.14614904
-0.86826742 -0.64227194 -0.036192104 0.39998165 -0.051281326 -0.9150874 0.14614904
-0.87032163 -0.61847049 -0.038398579 0.39250031 -0.050350111 -0.91837269 0.14614904
-0.84821147 -0.44545302 -0.039324608 0.3755275 -0.058583673 -0.92495787 0.14614904
-0.49139288 -0.65981483 0.20743036 0.63954979 -0.13254099 -0.75723773 0.14614904
-0.72973961 -0.63022953 0.032871086 0.49818668 -0.085986532 -0.86279565 0.14614904
-0.57424319 -0.60996312 0.13358702 0.5962922 -0.10749487 -0.79553789 0.14614904
-0.36310241 -1.2216867 0.75708979 0.43982327 -0.84150416 -0.31372952 0.14614904
-0.5200479 -0.71839726 0.19440885 0.6334694 -0.15270579 -0.75854957 0.14614904
-0.47071227 -0.48495057 0.20152727 0.64761847 -0.073362038 -0.75842488 0.14614904
-0.65352142 -0.6743598 0.085816093 0.55759543 -0.11061071 -0.82271051 0.14614904
-0.651326 -0.64967239 0.084060684 0.55478752 -0.10554557 -0.82527024 0.14614904
-0.51545894 -0.71530241 0.19762576 0.63492101 -0.15224411 -0.75742787 0.14614904
-1.0606997 -1.0748494 -0.11417566 0.43940023 0.027236529 -0.89787841 0.14614904
-0.52672487 -1.1470134 0.38484356 0.69711238 -0.50816256 -0.50577182 0.14614904
-0.78563571 -1.0616341 0.059446551 0.61707586 -0.17262559 -0.76773548 0.14614904
-0.46525908 -0.55968982 0.21451899 0.64756632 -0.096296877 -0.75589997 0.14614904
-0.36609238 -0.59167528 0.30760899 0.6752426 -0.10470831 -0.73012573 0.14614904
-0.27152222 -0.72903681 0.42252141 0.66689277 -0.1869711 -0.72131538 0.14614904
-1.4785955 -1.7626421 1.1079786 0.52643561 -0.64634144 0.55236608 0.14614904
-0.93876404 -1.1269917 2.2151947 -0.2337729 -0.95403987 0.18750501 0.14614904
-0.67139995 -0.73624295 0.082399026 0.55929196 -0.12123312 -0.82005793 0.14614904
-0.48892465 -0.72500807 0.22224988 0.64547306 -0.16158266 -0.74649554 0.14614904
-0.53850681 -0.63081199 0.16412458 0.61683869 -0.11725721 -0.77830631 0.14614904
-0.21678317 -0.79247022 0.49106425 0.64436001 -0.2431812 -0.72502625 0.14614904
-0.41575044 -0.67950553 0.27745315 0.66327792 -0.14828074 -0.73353612 0.14614904
-0.57287598 -0.7053268 0.14931816 0.60814142 -0.13693994 -0.78192806 0.14614904
-0.58799833 -0.81379068 0.15915766 0.62140989 -0.17594871 -0.76347351 0.14614904
-0.56163883 -0.66953737 0.15202458 0.60904706 -0.12684743 -0.78292489 0.14614904
-0.54048318 -0.42299119 0.13891034 0.61306107 -0.066508949 -0.78723103 0.14614904
-0.27757022 -0.951397 0.50991911 0.62950939 -0.41329044 -0.65795815 0.14614904
-0.17928244 -1.2067615 0.89298654 0.23726906 -0.872572 -0.42699122 0.14614904
-0.28855151 -0.8499791 0.44714257 0.6555897 -0.29223669 -0.69627571 0.14614904
-0.67533338 -0.68038923 0.072072566 0.54488999 -0.10692753 -0.83166182 0.14614904
-0.74004316 -0.68605977 0.032625392 0.50282842 -0.091226459 -0.85955882 0.14614904
-0.46562427 -0.64232278 0.22642034 0.64822561 -0.12751926 -0.75069463 0.14614904
-0.65208757 -1.088931 0.19203481 0.68925774 -0.30739704 -0.65607226 0.14614904
-0.57133299 -1.2264832 0.41101381 0.70392936 -0.57986277 -0.41017392 0.14614904
-0.8068974 -0.65033489 -0.0068979072 0.44678107 -0.068894498 -0.89198667 0.14614904
-0.64195079 -0.6662159 0.092617497 0.56337088 -0.11116952 -0.81869078 0.14614904
-0.65781778 -0.96390051 0.14024664 0.63667452 -0.21677291 -0.7400372 0.14614904
-1.2573757 -0.91468942 -0.17311932 0.25249952 0.11503111 -0.96073502 0.14614904
-0.76977718 -0.64517307 0.011954843 0.47253457 -0.078214541 -0.87783456 0.14614904
-0.43121311 -0.67808414 0.26325858 0.6596092 -0.1463467 -0.73722339 0.14614904
-0.56096584 -0.66078848 0.15114635 0.60839754 -0.124097 -0.78387016 0.14614904
-0.33894646 -0.64319992 0.34109956 0.67573208 -0.1302896 -0.72554171 0.14614904
-0.43307376 -0.98579663 0.37181133 0.67631495 -0.37924251 -0.63148493 0.14614904
-0.76313198 -0.7501446 0.026034474 0.50377327 -0.094382092 -0.85866439 0.14614904
-0.41199312 -0.53632784 0.25854716 0.66729021 -0.084636092 -0.73997331 0.14614904
-0.6461218 -0.72081476 0.097589269 0.57102525 -0.12424087 -0.81147665 0.14614904
-0.060841683 -0.67409939 0.59231615 0.60902536 -0.11253449 -0.78512681 0.14614904
-0.91665226 -0.57270998 -0.059060358 0.34738657 -0.038805574 -0.93691874 0.14614904
-0.73208606 -0.71932715 0.041065071 0.51631212 -0.099112049 -0.85064596 0.14614904
-0.86333007 -0.61005837 -0.035866104 0.3956269 -0.052141201 -0.91693002 0.14614904
-0.36035466 -0.53365773 0.30569941 0.68042433 -0.077771463 -0.7286799 0.14614904
0.035302885 -1.4733844 1.6106128 -0.42477778 -0.87978065 -0.21342395 0.14614904
-0.3428489 -0.71445066 0.35239506 0.67196864 -0.17378956 -0.71989954 0.14614904
-0.81886214 -0.64312446 -0.013342822 0.4363142 -0.065164164 -0.89743161 0.14614904
-1.5139412 -1.2151747 -0.30262497 0.24548788 0.27878171 -0.92844844 0.14614904
-0.90556616 -0.65276176 -0.051385839 0.37584779 -0.040294025 -0.92580497 0.14614904
-0.54932481 -0.58580023 0.14933713 0.60831249 -0.1030089 -0.7869848 0.14614904
-0.6277619 -0.72403681 0.11121707 0.58224332 -0.13005616 -0.80254477 0.14614904
-0.37206689 -0.67589456 0.31667176 0.67088079 -0.14872856 -0.72649759 0.14614904
0.15384114 -1.2417804 0.9996168 -0.056667604 -0.75913388 -0.64846319 0.14614904
-0.28155771 -0.92260087 0.48904249 0.63948113 -0.37509742 -0.67109299 0.14614904
-0.32211781 -0.86075085 0.41976944 0.66204876 -0.29533681 -0.68881607 0.14614904
-0.6180281 -1.1068063 0.2386893 0.7025606 -0.35730535 -0.61541975 0.14614904
-0.61392653 -0.78211135 0.13190544 0.60195196 -0.15384473 -0.78357238 0.14614904
-0.49044621 -0.84809309 0.25359738 0.66020924 -0.23071215 -0.71476966 0.14614904
-0.80047154 -1.1225853 0.061637875 0.64269 -0.18841615 -0.74259603 0.14614904
-0.79179585 -1.0059296 0.043430399 0.58478242 -0.14562987 -0.79801095 0.14614904
-0.53123677 -0.68052399 0.17805922 0.62465596 -0.13550153 -0.76905417 0.14614904
-0.65352142 -0.6743598 0.085816093 0.55759543 -0.11061071 -0.82271051 0.14614904
-1.1402243 -1.0520974 -0.14844288 0.37605944 0.07427422 -0.92361391 0.14614904
-0.39682385 -1.0258379 0.43853518 0.66304469 -0.45287636 -0.59604931 0.14614904
-0.63141853 -1.0750523 0.20719752 0.68883497 -0.31473804 -0.65302861 0.14614904
-0.68040341 -0.98949063 0.12829989 0.63688451 -0.21598698 -0.74008632 0.14614904
-0.34599572 -0.59646767 0.32696292 0.67798209 -0.10563834 -0.72744817 0.14614904
-0.53704363 -1.0584157 0.30176526 0.69347495 -0.38278684 -0.61038244 0.14614904
-0.37561595 -0.63345194 0.30541611 0.6716345 -0.12577768 -0.73012811 0.14614904
-0.52840775 -1.027499 0.29295748 0.68774331 -0.35720238 -0.63199335 0.14614904
-0.82577318 -0.6642561 -0.015176587 0.43651861 -0.064514972 -0.89737916 0.14614904
-0.57370025 -0.70714623 0.14899632 0.60800177 -0.13740446 -0.78195518 0.14614904
-0.60905695 -0.62484694 0.11011003 0.57753313 -0.10699651 -0.80932516 0.14614904
