# .PCD v0.7 - Point Cloud Data file format
VERSION 0.7
FIELDS x y z normal_x normal_y normal_z curvature
SIZE 4 4 4 4 4 4 4
TYPE F F F F F F F
COUNT 1 1 1 1 1 1 1
WIDTH 56
HEIGHT 1
VIEWPOINT 0 0 0 1 0 0 0
POINTS 56
DATA ascii
0.17602594 0.062887304 1.0589162 -0.29669189 -0.011539371 1.0136641 0.03775087
-0.10338014 -0.22059287 0.94718504 -0.49670419 0.0082928138 0.87637699 0.03775087
0.11362617 -0.73482126 1.0658089 -0.43747512 0.12504213 0.90198588 0.03775087
0.71961558 -0.43474579 1.525798 -1.2106304 0.53793424 0.33004203 0.03775087
0.1745486 0.24516085 1.0601541 -0.31421843 -0.0043744734 1.0009682 0.03775087
-0.13411562 -0.35769874 0.93021166 -0.52392882 0.0059661991 0.85830683 0.03775087
0.12804124 -0.84526396 1.0926028 -0.48973599 0.18391834 0.85952616 0.03775087
0.098336421 -0.99208033 1.1115972 -0.56027758 0.24498673 0.80447209 0.03775087
0.79609007 -0.26880887 1.555395 -1.2719083 0.49346644 0.29418299 0.03775087
-0.30063093 -0.47052941 0.78728312 -0.827465 0.030739138 0.65061474 0.03775087
0.19298504 0.14577304 1.064833 -0.29486924 -0.012083616 1.0149598 0.03775087
-0.3521921 -0.25367692 0.67131513 -1.1113329 0.11919478 0.44836983 0.03775087
0.43177894 -0.40358028 1.1647319 -0.45726991 0.15695141 0.8847245 0.03775087
0.25215414 0.17783539 1.0818564 -0.27876139 -0.016188014 1.0263238 0.03775087
0.24929592 0.095116518 1.0798377 -0.27731663 -0.014251435 1.0270603 0.03775087
0.021758871 0.031213401 1.0057007 -0.39309427 0.0056923009 0.94655269 0.03775087
0.18754031 -0.046806842 1.061141 -0.29244021 -0.0076802648 1.0160573 0.03775087
0.39377198 0.23255838 1.1204048 -0.27654493 -0.019616598 1.0282389 0.03775087
0.56529284 -0.56865495 1.3323511 -0.82191575 0.39866364 0.60921252 0.03775087
-0.043446176 -0.25142154 0.97791696 -0.42697549 0.00066532131 0.92432588 0.03775087
0.13718584 -0.27261972 1.0460247 -0.32175371 0.01107167 0.99399245 0.03775087
0.083463222 -0.18413284 1.0280352 -0.33578196 -0.0026487052 0.98621768 0.03775087
0.24514945 -0.47212735 1.0921949 -0.36866906 0.089082316 0.95278907 0.03775087
-0.36338076 -0.55935591 0.6955393 -1.0082375 0.043955028 0.52711141 0.03775087
0.45721439 -0.4115091 1.1800237 -0.48882169 0.17751744 0.860928 0.03775087
-0.24415362 -0.092581443 0.82595742 -0.80137897 0.082411617 0.66186255 0.03775087
0.54294217 -0.12756346 1.1809973 -0.44037959 0.098041646 0.90334052 0.03775087
0.73290414 -0.21602312 1.3600892 -0.86468977 0.3041077 0.59197491 0.03775087
-0.12058278 -0.096602425 0.93453681 -0.54244709 0.025464004 0.84342897 0.03775087
-0.23101176 -0.30872235 0.85624903 -0.69566226 0.029543325 0.73962653 0.03775087
0.24929592 0.095116518 1.0798377 -0.27731663 -0.014251435 1.0270603 0.03775087
0.25261793 0.078226052 1.0805056 -0.27685681 -0.013458144 1.0272729 0.03775087
0.70953983 0.14185418 1.247234 -0.55059701 0.079246134 0.83133507 0.03775087
0.47811601 -0.8437984 1.4367977 -1.0226725 0.59352231 0.44994789 0.03775087
0.190603 -0.59911484 1.0834275 -0.39924288 0.11044208 0.92955452 0.03775087
0.093797669 0.15415381 1.032985 -0.35192388 0.0029313206 0.97464973 0.03775087
0.023667317 -0.35402915 1.0065271 -0.37660906 0.0068913894 0.95752037 0.03775087
0.1196554 0.050916828 1.0414809 -0.32261124 -0.0074559813 0.9956876 0.03775087
0.39377198 0.23255838 1.1204048 -0.27654493 -0.019616598 1.0282389 0.03775087
-0.045634322 0.25141868 0.96352619 -0.5346455 0.068221398 0.84344274 0.03775087
0.20192492 0.25038758 1.0685651 -0.30158889 -0.0086140325 1.0100036 0.03775087
0.3805736 -0.68876123 1.2078376 -0.59005064 0.28783417 0.77914095 0.03775087
0.34222847 -0.40789282 1.1241071 -0.38856301 0.10952954 0.93686718 0.03775087
0.16295432 -0.6565451 1.0783833 -0.41490638 0.11911863 0.91792917 0.03775087
0.27147514 -1.2129296 1.5055948 -1.1326196 0.76148736 0.3552095 0.03775087
-0.30714214 -0.35920197 0.77130145 -0.8782205 0.052741691 0.61369431 0.03775087
0.50678402 -0.068260707 1.159901 -0.38302517 0.060892485 0.94656861 0.03775087
-0.40383822 -0.50071287 0.58630526 -1.2372872 0.090218589 0.36700332 0.03775087
-0.40070474 -0.3165606 0.52501875 -1.3928789 0.16665645 0.25272027 0.03775087
-0.28373212 -0.34601775 0.80142373 -0.81384951 0.043838162 0.65818751 0.03775087
0.23361856 0.45081013 1.0788664 -0.32116139 0.0054126177 0.99508619 0.03775087
0.38257182 -0.65442854 1.1972649 -0.56506765 0.26546532 0.79872984 0.03775087
-0.0069321501 -0.52735305 0.99658847 -0.41245106 0.025008444 0.93113178 0.03775087
0.087623 -0.9510259 1.0929406 -0.53250968 0.21211213 0.82722765 0.03775087
-0.34945291 -0.27406591 0.68292654 -1.083114 0.10843734 0.4687157 0.03775087
-0.35878322 -0.40388674 0.68691391 -1.0509603 0.075668283 0.49441534 0.03775087
