# .PCD v0.7 - Point Cloud Data file format
VERSION 0.7
FIELDS x y z normal_x normal_y normal_z curvature
SIZE 4 4 4 4 4 4 4
TYPE F F F F F F F
COUNT 1 1 1 1 1 1 1
WIDTH 113
HEIGHT 1
VIEWPOINT 0 0 0 1 0 0 0
POINTS 113
DATA ascii
0.21613923 -0.058420625 1.0373001 -0.29209995 0.1590402 0.94307148 0.038824912
-0.0039313654 0.11182535 0.91842049 -0.45216712 0.21900271 0.86462867 0.038824912
0.28108329 0.1767468 1.0305462 -0.34422931 0.064262085 0.93668383 0.038824912
0.28362095 0.52366251 1.0339416 -0.49885726 -0.078680873 0.8631053 0.038824912
0.74516255 0.84001708 1.4189365 -0.47711182 -0.49630144 0.72529244 0.038824912
0.0014258602 0.087814629 0.92716384 -0.43438295 0.21655847 0.87430763 0.038824912
0.34672776 0.023170236 1.0662838 -0.29792446 0.10777713 0.94848567 0.038824912
0.10501108 0.11768643 0.96850276 -0.38769594 0.15714937 0.90829289 0.038824912
0.29140326 -0.1980183 1.0858157 -0.27784526 0.19826521 0.93994302 0.038824912
0.31716838 0.60628343 1.0646907 -0.51943308 -0.14318086 0.84243011 0.038824912
0.3899973 -0.77855402 1.3675945 -0.54138279 0.50888389 0.66928458 0.038824912
0.40579802 -0.16354597 1.1136723 -0.29856756 0.19027291 0.93522918 0.038824912
0.16471717 -0.12821418 1.0343392 -0.28650537 0.18624267 0.93980229 0.038824912
0.47482908 0.06360212 1.103637 -0.31532121 0.073383786 0.94614339 0.038824912
0.33033636 0.22452256 1.0464308 -0.34908462 0.026802011 0.93670785 0.038824912
0.44147971 0.22791901 1.0868295 -0.33809587 -0.0099987034 0.94105858 0.038824912
0.073103033 0.1014975 0.95764613 -0.39701864 0.17582227 0.90081227 0.038824912
0.40786365 -0.23581102 1.130519 -0.30763987 0.22615238 0.92423636 0.038824912
0.15065065 -0.12339946 1.0290655 -0.28983366 0.18761915 0.93850708 0.038824912
0.83963639 0.085262276 1.2585744 -0.50963748 0.094427951 0.85519183 0.038824912
0.3165389 0.22210729 1.0413474 -0.35128632 0.033015139 0.93568581 0.038824912
1.1374456 0.13231494 1.5312443 -0.82458407 0.19850095 0.5297721 0.038824912
0.5418998 -0.26987642 1.1904515 -0.38084501 0.28107578 0.8808822 0.038824912
0.99452639 -0.16324604 1.4948052 -0.75586748 0.42031887 0.5019924 0.038824912
-0.0082095983 0.36313277 0.84819496 -0.62977922 0.21645878 0.74600518 0.038824912
-0.00092337362 -0.02165658 0.95314944 -0.37932426 0.22202049 0.89823163 0.038824912
-0.052396987 -0.075334646 0.94523185 -0.38452747 0.24581257 0.88978356 0.038824912
0.010103651 -0.1043465 0.9777348 -0.33971217 0.2218883 0.91398096 0.038824912
0.21357717 -0.057917394 1.0364208 -0.29256076 0.15938985 0.9428696 0.038824912
0.097195074 0.51048183 0.90588272 -0.63831371 0.093475126 0.76407987 0.038824912
0.048813757 0.41679528 0.88174576 -0.6161887 0.15709794 0.77177185 0.038824912
0.069562882 0.1033745 0.95571029 -0.39997265 0.17743888 0.89918703 0.038824912
-0.031233713 0.21137029 0.87526888 -0.53913152 0.23730299 0.80809933 0.038824912
0.80111367 -0.32405198 1.3833803 -0.62786883 0.45017833 0.63491744 0.038824912
0.22895211 0.32561719 1.0010117 -0.42714891 0.036326133 0.90345126 0.038824912
0.048673816 -0.054032031 0.9803496 -0.34104297 0.20416564 0.91760892 0.038824912
0.33885124 0.086180083 1.0574324 -0.30984673 0.082818896 0.94717264 0.038824912
0.12627281 0.19225252 0.96596462 -0.41359583 0.13224153 0.90080553 0.038824912
0.16928853 0.29504678 0.97412395 -0.44395259 0.082566231 0.89223814 0.038824912
0.19018662 0.19281378 0.99377328 -0.38187566 0.098255858 0.91897595 0.038824912
0.90961736 0.73151892 1.4588894 -0.5203591 -0.45600361 0.72200215 0.038824912
0.45847011 0.38851902 1.1031879 -0.3806904 -0.10487539 0.9187361 0.038824912
-0.18849939 -0.13778239 0.89999425 -0.44746947 0.30525362 0.84058988 0.038824912
0.18027157 -0.19522871 1.0527483 -0.27548677 0.20060153 0.9401415 0.038824912
-0.40484852 -0.43678614 0.89625633 -0.48036933 0.32566664 0.81436265 0.038824912
-0.019669181 0.21837038 0.88091063 -0.53407454 0.22826542 0.81403887 0.038824912
0.0019449082 0.3719956 0.85421431 -0.62684739 0.20631856 0.75132883 0.038824912
-0.24437533 0.18267745 0.69424021 -0.71812338 0.41026673 0.56212103 0.038824912
0.26269057 0.61906844 1.0311614 -0.56369829 -0.10453815 0.81933874 0.038824912
0.16432616 0.55120564 0.95646548 -0.60452145 0.014035741 0.79646522 0.038824912
0.14850689 0.44344184 0.95017421 -0.54796278 0.059238382 0.8344025 0.038824912
1.0752944 -0.26650757 1.8956869 -0.83667201 0.53399253 0.12178647 0.038824912
0.33343661 0.085046366 1.0557609 -0.30996287 0.084513262 0.94698495 0.038824912
0.073103033 0.1014975 0.95764613 -0.39701864 0.17582227 0.90081227 0.038824912
1.145039 -0.040190402 1.6703268 -0.86099631 0.39284909 0.32304013 0.038824912
0.3116625 0.35759419 1.038582 -0.40552273 -0.022589784 0.91380578 0.038824912
1.009707 -0.066037409 1.4478463 -0.73986077 0.33443025 0.58374864 0.038824912
0.12627281 0.19225252 0.96596462 -0.41359583 0.13224153 0.90080553 0.038824912
0.14579499 0.38849157 0.95285451 -0.51497072 0.075496539 0.85387671 0.038824912
-0.10156739 -0.32233065 0.99519742 -0.32286632 0.25596887 0.91117358 0.038824912
0.1831546 0.058696423 1.0080934 -0.33115464 0.13645355 0.93365788 0.038824912
0.20749444 0.036416486 1.0197365 -0.31729341 0.13449816 0.93874127 0.038824912
0.065923862 0.25605813 0.92451334 -0.49038297 0.16106732 0.85649395 0.038824912
-0.27450967 -0.17411257 0.86471719 -0.49914408 0.34313962 0.79568237 0.038824912
0.20121528 0.44169459 0.98300403 -0.50742835 0.016220687 0.86154127 0.038824912
0.27229103 0.39715031 1.0210912 -0.44096097 -0.016843492 0.89736819 0.038824912
0.20549734 0.33714524 0.98909223 -0.44575649 0.047080293 0.8939153 0.038824912
0.15390791 0.25429714 0.97082317 -0.43076822 0.10243583 0.89663017 0.038824912
0.77616149 0.31982693 1.2295817 -0.43758285 -0.12253325 0.89078999 0.038824912
0.36246088 0.57372612 1.0853955 -0.47921124 -0.15829611 0.863307 0.038824912
0.45847011 0.38851902 1.1031879 -0.3806904 -0.10487539 0.9187361 0.038824912
0.3165389 0.22210729 1.0413474 -0.35128632 0.033015139 0.93568581 0.038824912
0.53684634 -0.32596812 1.2074111 -0.39742762 0.31584254 0.86156529 0.038824912
0.43225467 -0.27572596 1.1492866 -0.32468635 0.25184745 0.91167516 0.038824912
0.63524443 -0.66965348 1.5243944 -0.66759259 0.59036797 0.45363617 0.038824912
0.21357717 -0.057917394 1.0364208 -0.29256076 0.15938985 0.9428696 0.038824912
0.24882033 -0.15776026 1.0651374 -0.27652422 0.18507279 0.94301772 0.038824912
0.62885499 0.10812829 1.1562786 -0.36507967 0.041392278 0.93005568 0.038824912
0.38712794 0.055632226 1.0757532 -0.30392489 0.087304339 0.94868731 0.038824912
0.55037695 -0.039680295 1.1409652 -0.33876503 0.13540906 0.93107605 0.038824912
-0.22007871 -0.085118808 0.86118549 -0.50483799 0.33260676 0.79656219 0.038824912
-0.00092337362 -0.02165658 0.95314944 -0.37932426 0.22202049 0.89823163 0.038824912
-0.30820364 -0.078692473 0.79387379 -0.59242016 0.38941738 0.70526052 0.038824912
-0.45373544 -0.17126696 0.71098334 -0.67719442 0.44844651 0.58335537 0.038824912
-0.28095907 -0.47311276 0.97092241 -0.37682906 0.27791786 0.88360709 0.038824912
0.24014197 -0.44956309 1.1356807 -0.29791695 0.28246838 0.9118427 0.038824912
0.38352728 -0.47779793 1.1982402 -0.3649812 0.3422001 0.86584514 0.038824912
0.047038592 -0.1197258 0.99458939 -0.3194313 0.21148187 0.92370939 0.038824912
-0.40430346 -0.42748991 0.89283764 -0.48388627 0.32862809 0.81108427 0.038824912
1.1732341 0.81275338 1.7829982 -0.72066724 -0.47478458 0.50519133 0.038824912
0.74166811 0.31341869 1.2122327 -0.41939935 -0.11600327 0.90035963 0.038824912
-0.24437533 0.18267745 0.69424021 -0.71812338 0.41026673 0.56212103 0.038824912
0.93986899 -0.17263304 1.4286647 -0.70344257 0.39749494 0.58920825 0.038824912
0.33841074 0.27528352 1.048745 -0.36477435 0.0013757949 0.93109494 0.038824912
0.23147193 0.4250809 1.0002781 -0.47817647 -0.00053380412 0.87826359 0.038824912
0.069562882 0.1033745 0.95571029 -0.39997265 0.17743888 0.89918703 0.038824912
0.11828447 0.34659258 0.94084108 -0.50900811 0.10671969 0.85412037 0.038824912
0.1838064 0.34963512 0.97723705 -0.4656058 0.057738509 0.88310671 0.038824912
0.32458168 0.24054112 1.0438443 -0.35579309 0.022132769 0.93430263 0.038824912
1.1102976 0.12938119 1.4925685 -0.79499906 0.18233943 0.57855755 0.038824912
0.57676977 -0.31918415 1.2240318 -0.42282709 0.32820418 0.84468883 0.038824912
0.40435547 -0.24316113 1.1311623 -0.30758798 0.22918518 0.92350626 0.038824912
0.77349442 -0.48329103 1.4951063 -0.68243659 0.55101091 0.48027837 0.038824912
0.89907646 -0.043216944 1.3265166 -0.60872704 0.24647646 0.7541225 0.038824912
0.28077695 -0.024361193 1.0519209 -0.2919642 0.13667855 0.94661283 0.038824912
0.3642 -0.12515923 1.0933623 -0.28783503 0.17020565 0.94243354 0.038824912
0.73037905 -0.016228378 1.2135208 -0.44150499 0.15266287 0.88417614 0.038824912
0.03527838 -0.0063346741 0.96447659 -0.36670026 0.20505628 0.90745956 0.038824912
-0.27831066 0.14508131 0.6785419 -0.72247624 0.42822686 0.54281658 0.038824912
-0.2525607 0.049205571 0.77112871 -0.62827134 0.3852711 0.67590034 0.038824912
-0.44899628 -0.16331238 0.71036971 -0.67748845 0.4485952 0.58289945 0.038824912
0.42329788 -0.48952737 1.2207211 -0.39330661 0.36608538 0.84338093 0.038824912
1.0674052 0.83534014 1.6741124 -0.62158406 -0.52010679 0.58576638 0.038824912
