# .PCD v0.7 - Point Cloud Data file format
VERSION 0.7
FIELDS x y z normal_x normal_y normal_z curvature
SIZE 4 4 4 4 4 4 4
TYPE F F F F F F F
COUNT 1 1 1 1 1 1 1
WIDTH 60
HEIGHT 1
VIEWPOINT 0 0 0 1 0 0 0
POINTS 60
DATA ascii
0.068902478 -0.26500523 1.0661296 -0.18175673 0.067002825 0.98105818 0.021243127
0.20749907 0.15069641 1.0697384 -0.18824209 -0.03011943 0.98166072 0.021243127
0.14341195 0.18326175 1.0564262 -0.23896572 0.0022144683 0.97102547 0.021243127
-0.078041412 -0.23849411 1.0141605 -0.49708962 0.056768611 0.8658402 0.021243127
0.32592151 -0.44024268 1.1150011 -0.15641834 0.15333195 0.97571647 0.021243127
0.43089703 -0.35976303 1.1233501 -0.25434244 0.154238 0.95473588 0.021243127
0.0089901155 -0.021236084 1.0323148 -0.31721267 0.090804681 0.94399714 0.021243127
0.18578535 0.066649362 1.0652498 -0.14945611 0.0094632227 0.9887231 0.021243127
0.69733524 -0.41388845 1.4463568 -0.96223813 0.19467506 0.19026144 0.021243127
0.14365071 -0.20083772 1.0722246 -0.10693793 0.068035856 0.99193519 0.021243127
-0.01711949 0.30914164 0.97755438 -0.59535372 0.1311827 0.79268217 0.021243127
0.30895635 0.18636724 1.093661 -0.23648582 -0.11740834 0.96451527 0.021243127
0.031023184 0.13368002 1.0252087 -0.35348585 0.086201914 0.93145961 0.021243127
0.70764756 -0.073083021 1.3986969 -0.9710722 -0.088056445 0.22195676 0.021243127
-0.22834845 -0.28850046 0.82263774 -0.94700879 -0.0056835567 0.32115737 0.021243127
-0.23096044 -0.42262706 0.7932688 -0.96203965 -0.083567336 0.25980029 0.021243127
0.27859589 -0.86573952 1.1956733 -0.46200913 0.24712017 0.85175067 0.021243127
0.2880933 -0.19455209 1.0841638 -0.088226192 0.063444823 0.99407792 0.021243127
-0.12398304 0.079916902 0.93315315 -0.72831011 0.16550353 0.66496092 0.021243127
0.16327667 0.45113343 1.0793985 -0.45958129 -0.12340922 0.87951988 0.021243127
0.25643232 0.21248922 1.0839243 -0.23079008 -0.092621095 0.96858519 0.021243127
0.13079457 0.059012946 1.0563992 -0.17875649 0.036918785 0.98320043 0.021243127
0.17352884 0.066022456 1.0633756 -0.15429556 0.015397556 0.98790473 0.021243127
-0.13596757 -0.48458925 0.96657604 -0.74125504 -0.077732496 0.66670728 0.021243127
0.11879747 0.31739196 1.0496113 -0.36645651 -0.014803273 0.9303174 0.021243127
-0.21392347 -0.20704657 0.8556717 -0.91508621 0.043562602 0.40089834 0.021243127
-0.084811948 -0.15953435 1.0037513 -0.52229422 0.082130931 0.84880108 0.021243127
0.30653551 -0.61967641 1.1444467 -0.2466969 0.2031287 0.94756496 0.021243127
-0.19997367 -0.46308127 0.87014407 -0.90822661 -0.097752787 0.40690148 0.021243127
0.10012184 0.36305049 1.0420811 -0.42996767 -0.0075891879 0.90281242 0.021243127
0.055160917 -0.75592923 1.0790048 -0.4599053 -0.024275165 0.88763607 0.021243127
0.24140336 -0.16100337 1.0782915 -0.079773307 0.05589468 0.99524468 0.021243127
0.34764239 -0.63780475 1.160671 -0.29925257 0.24133722 0.92314911 0.021243127
0.22224332 0.15186213 1.0725963 -0.18706967 -0.03995036 0.98153394 0.021243127
0.30644283 0.13411835 1.0876708 -0.19995071 -0.08465001 0.97614247 0.021243127
0.25838089 0.081833795 1.0761745 -0.15089901 -0.031258523 0.98805487 0.021243127
-0.035332128 -0.031116474 1.0158776 -0.41593549 0.10481995 0.90333295 0.021243127
0.031727698 -0.072904944 1.0437464 -0.25702763 0.080125429 0.96307671 0.021243127
-0.051316172 -0.11545342 1.0176102 -0.43271595 0.091277972 0.89689755 0.021243127
0.053086989 0.24517596 1.0249248 -0.39517531 0.063372217 0.91641718 0.021243127
0.22095634 0.25419572 1.0788214 -0.25911802 -0.085229926 0.9620778 0.021243127
0.18930604 0.18862243 1.0671879 -0.21740048 -0.032120883 0.97555381 0.021243127
0.17391422 -0.083664566 1.0683531 -0.10403798 0.048147723 0.99340719 0.021243127
0.67328578 -0.22580701 1.2900933 -0.8958534 0.059072632 0.44040558 0.021243127
0.078438424 0.054426864 1.0457214 -0.23290254 0.062242791 0.97050619 0.021243127
0.090815879 0.20562117 1.0411568 -0.30811107 0.036693621 0.95064247 0.021243127
0.13128147 0.17746305 1.0534461 -0.24496005 0.012275287 0.96945548 0.021243127
0.17190857 0.42632788 1.0802946 -0.42961213 -0.12175015 0.8947683 0.021243127
0.64834839 0.15500179 1.3528621 -0.89940286 -0.2885215 0.32837459 0.021243127
0.41089544 0.23710726 1.1371609 -0.39911461 -0.23992342 0.88495439 0.021243127
0.39634833 0.081935465 1.1032649 -0.26072526 -0.10690826 0.95947534 0.021243127
0.33823684 0.42906573 1.1645467 -0.48516321 -0.32866094 0.81030774 0.021243127
-0.014249973 -0.34353903 1.0487335 -0.34172702 0.040078007 0.93894428 0.021243127
0.18229881 0.45935917 1.0906444 -0.45880014 -0.1539074 0.87510854 0.021243127
0.11497492 0.36741516 1.0491019 -0.41681078 -0.026374245 0.90861058 0.021243127
0.10623487 0.001381852 1.0546974 -0.1777541 0.055153705 0.98252815 0.021243127
-0.048973534 0.18395412 0.97644681 -0.57499111 0.1475015 0.80475372 0.021243127
-0.016495781 -0.34254065 1.0478671 -0.34662843 0.039658304 0.93716377 0.021243127
0.2382888 -0.82502335 1.1657751 -0.40050924 0.18844965 0.89670455 0.021243127
-0.18601659 -0.7116037 0.77879328 -0.94337928 -0.23235372 0.23674315 0.021243127
