# .PCD v0.7 - Point Cloud Data file format
VERSION 0.7
FIELDS x y z normal_x normal_y normal_z curvature
SIZE 4 4 4 4 4 4 4
TYPE F F F F F F F
COUNT 1 1 1 1 1 1 1
WIDTH 87
HEIGHT 1
VIEWPOINT 0 0 0 1 0 0 0
POINTS 87
DATA ascii
0.041528519 0.0070465663 0.96686059 -0.47117516 0.090779349 0.87735575 0.048299965
0.23269245 0.0070656091 1.0655284 -0.43916765 0.18237334 0.87969983 0.048299965
0.29643512 0.24105045 1.0400822 -0.35687479 0.25671589 0.89818555 0.048299965
0.13987248 -0.078728579 1.0342475 -0.47792298 0.17518279 0.86075586 0.048299965
-0.0058864844 -0.016263796 0.94272888 -0.49428573 0.06570638 0.86681271 0.048299965
0.31934798 0.40255544 0.99193954 -0.25578412 0.37297627 0.89188743 0.048299965
0.3430149 0.28581885 1.0442938 -0.34372458 0.30464706 0.88828123 0.048299965
0.17225216 0.025373971 1.0317665 -0.44148386 0.15832104 0.88319105 0.048299965
-0.30830473 -0.46668109 0.73067367 -0.84870458 0.26913798 0.45526397 0.048299965
0.75732094 0.14209794 1.303739 -0.51279712 0.18716359 0.83785969 0.048299965
-0.017897528 -0.062818006 0.93952298 -0.52238023 0.079570264 0.84899205 0.048299965
0.32554671 0.049572919 1.1015984 -0.4249602 0.20472944 0.8817566 0.048299965
0.33841929 0.28635785 1.0423365 -0.34216467 0.30280337 0.88951302 0.048299965
0.10328213 0.49072197 0.91799581 -0.11245289 0.26339003 0.95811278 0.048299965
2.0112634 0.15622996 2.7578466 -0.39090061 -0.88912386 0.238024 0.048299965
0.58816922 -0.26458147 1.2840459 -0.31366807 0.15854746 0.93620247 0.048299965
-0.15988944 -0.03448027 0.84886998 -0.54673731 -0.065329835 0.83475167 0.048299965
0.18329944 -0.16051196 1.0778003 -0.47326574 0.22895049 0.85064751 0.048299965
1.1719027 -0.29024595 1.4400105 -0.21835008 -0.34451449 0.91303504 0.048299965
0.25383285 -0.089685671 1.0976956 -0.4486196 0.20685956 0.86945361 0.048299965
-0.053235322 0.15175353 0.91462946 -0.38819635 -0.0080749253 0.92154133 0.048299965
0.11528671 0.016553529 1.0043663 -0.45310247 0.1324981 0.88155681 0.048299965
0.14952658 0.0041527883 1.0239809 -0.45201015 0.15200713 0.87896568 0.048299965
-0.17815705 -0.18149637 0.83035278 -0.65775406 0.025699573 0.75279421 0.048299965
0.38675272 0.33633155 1.0418925 -0.32701129 0.36083993 0.8734175 0.048299965
0.095635705 0.16371776 0.97572386 -0.37866718 0.11362264 0.91853201 0.048299965
-0.212575 -0.12179913 0.80295306 -0.63057202 -0.068082832 0.77313882 0.048299965
0.30673021 0.15764074 1.0668142 -0.3954294 0.22537227 0.89041728 0.048299965
0.27377048 0.29499108 1.0157194 -0.32045281 0.27364105 0.9068796 0.048299965
0.40367225 0.27343193 1.0732206 -0.36776266 0.32172796 0.87249172 0.048299965
0.36134934 -0.14774196 1.165554 -0.41786978 0.22197427 0.88097233 0.048299965
0.016811188 0.054863963 0.94990343 -0.44914708 0.060565293 0.89140266 0.048299965
-0.29193133 -0.1158163 0.73678911 -0.64896995 -0.17350021 0.74076694 0.048299965
0.22473089 -0.36791831 1.1751493 -0.40191391 0.38788205 0.82946533 0.048299965
0.18971583 -0.16416699 1.08235 -0.47080174 0.23206131 0.85117173 0.048299965
-0.351264 -0.10409981 0.68740952 -0.64805025 -0.26091295 0.71551055 0.048299965
1.3632457 0.84449053 2.0478387 -0.9199571 0.3834132 -0.0816902 0.048299965
0.63219768 0.50843197 1.0331627 -0.30999476 0.62033856 0.72047442 0.048299965
1.056815 0.17859814 1.5198025 -0.66245377 -0.055092432 0.74707419 0.048299965
0.39799455 -0.069732204 1.1643831 -0.4231382 0.20303734 0.88302314 0.048299965
0.094361171 0.497343 0.91518527 -0.10373326 0.25957865 0.96013457 0.048299965
0.54246187 -0.1082808 1.2391527 -0.39891011 0.16458394 0.90209913 0.048299965
0.11824039 -0.14668784 1.0369014 -0.49832311 0.20469129 0.84248179 0.048299965
1.0235419 0.26313719 1.485569 -0.70356011 0.106259 0.70264655 0.048299965
0.20837462 0.11909774 1.0316259 -0.40399987 0.174982 0.89786714 0.048299965
0.23456571 0.041902497 1.0592881 -0.43025774 0.18091068 0.8843922 0.048299965
0.39754397 0.033626046 1.1402026 -0.4269236 0.2097856 0.87961709 0.048299965
-0.30709466 -0.20586981 0.70297134 -0.73141646 -0.1210226 0.67110616 0.048299965
0.31616417 0.35279804 1.0106611 -0.29283828 0.33521867 0.89547431 0.048299965
0.34389788 0.30238384 1.0388445 -0.33434972 0.31588793 0.88793302 0.048299965
0.22153099 0.54323256 0.91213053 -0.09233921 0.40150249 0.91119111 0.048299965
-0.14881098 -0.42921141 0.93624228 -0.68128556 0.40606135 0.60906821 0.048299965
0.2955896 0.18958041 1.0537654 -0.38124773 0.23298749 0.89463234 0.048299965
0.26253796 0.17497303 1.0433134 -0.3833437 0.21319854 0.89866233 0.048299965
0.22275142 0.43216363 0.9562608 -0.20001964 0.32560286 0.92410761 0.048299965
0.34058884 0.45358312 0.97464502 -0.21977365 0.42547438 0.87787873 0.048299965
0.26782313 0.21804969 1.0348771 -0.36351654 0.2319535 0.90224904 0.048299965
0.21909396 0.25642279 1.0065889 -0.33351928 0.22134574 0.91639018 0.048299965
0.73598665 0.35739034 1.2038298 -0.49086568 0.4528572 0.74429244 0.048299965
0.39725515 0.56097019 0.9254061 -0.13762426 0.54509133 0.82700366 0.048299965
0.51307559 0.43346435 1.0399565 -0.31095028 0.50166166 0.80724567 0.048299965
0.42647299 0.28901306 1.0769217 -0.36741561 0.34124285 0.86519307 0.048299965
0.5626629 -0.24771482 1.2722677 -0.32986078 0.17005837 0.92858607 0.048299965
0.43335161 -0.44491974 1.2861562 -0.24017872 0.35069093 0.90516853 0.048299965
0.61080009 -0.08855848 1.2661468 -0.40277115 0.13517743 0.90526378 0.048299965
0.35548306 0.039836898 1.1183404 -0.42615426 0.20781685 0.8804571 0.048299965
0.65210742 0.17322153 1.233216 -0.4769406 0.25842407 0.8400861 0.048299965
0.53416294 0.010837054 1.2120231 -0.43129694 0.18893084 0.88220638 0.048299965
-0.11737207 -0.092421629 0.87591296 -0.5746302 0.013287222 0.81830531 0.048299965
0.016811188 0.054863963 0.94990343 -0.44914708 0.060565293 0.89140266 0.048299965
0.10959432 -0.0046545966 1.0046237 -0.46254048 0.13484302 0.876284 0.048299965
-0.25830811 0.041023672 0.79946405 -0.49895653 -0.20382904 0.84231591 0.048299965
-0.26538351 -0.044288561 0.77459669 -0.57862973 -0.18115723 0.79521674 0.048299965
0.22737306 -0.37364051 1.1791135 -0.39725846 0.39242023 0.82957345 0.048299965
0.18362378 -0.063667893 1.0549234 -0.46285743 0.18375485 0.86717767 0.048299965
-0.11091431 -0.48623553 1.0208801 -0.60556698 0.52420175 0.5987497 0.048299965
0.4051598 -0.19576316 1.1978555 -0.3937977 0.22695345 0.89073873 0.048299965
0.80720043 -0.019170247 1.3515651 -0.45015812 0.033153966 0.89233315 0.048299965
-0.14664739 -0.24191044 0.86482626 -0.67071295 0.12731414 0.73070872 0.048299965
0.46641681 0.077940486 1.1628774 -0.43004045 0.22262724 0.8749299 0.048299965
0.1544161 0.25553301 0.98375595 -0.32395014 0.17825483 0.92912942 0.048299965
0.076120146 0.051188424 0.97993147 -0.44306821 0.10270192 0.89058566 0.048299965
0.22190759 0.11663167 1.0382199 -0.40526393 0.18090893 0.89612114 0.048299965
0.18607756 0.44870302 0.94324082 -0.17444327 0.3074984 0.935422 0.048299965
0.39622822 -0.067285225 1.1629732 -0.42362955 0.20309879 0.8827734 0.048299965
0.04984773 -0.043382838 0.9774223 -0.49256754 0.115428 0.86258543 0.048299965
0.2961207 -0.64724928 1.3694448 -0.11245456 0.59229761 0.79783303 0.048299965
