# .PCD v0.7 - Point Cloud Data file format
VERSION 0.7
FIELDS x y z normal_x normal_y normal_z curvature
SIZE 4 4 4 4 4 4 4
TYPE F F F F F F F
COUNT 1 1 1 1 1 1 1
WIDTH 103
HEIGHT 1
VIEWPOINT 0 0 0 1 0 0 0
POINTS 103
DATA ascii
-1.4649653 -0.62402707 -0.072708204 -0.19373766 0.56598574 0.80132759 0.12212992
-2.1627743 -1.4936788 0.051230606 -0.30660236 -0.10510577 0.94601679 0.12212992
-1.2240289 -0.87487018 0.12672704 -0.39151287 0.30478984 0.86822855 0.12212992
-1.6507585 -3.2637269 1.0889299 -0.8729288 0.40798572 -0.26747513 0.12212992
-1.1154783 -1.8327483 1.404569 -0.92987114 0.27899811 -0.23979108 0.12212992
-0.92419189 -1.1097904 0.57160586 -0.96208692 0.13300681 0.23811327 0.12212992
-1.3288089 -1.0827914 0.14805792 -0.2711741 0.21134976 0.93903989 0.12212992
-1.2750359 -0.9552325 0.13217747 -0.32640505 0.2699725 0.90585572 0.12212992
-1.8205847 -0.7343024 -0.063062027 -0.15052752 0.55542845 0.81782681 0.12212992
-1.5686733 -1.6798581 0.15088746 -0.2062556 -0.02562169 0.97816265 0.12212992
-1.53572 -2.0563731 0.13818865 -0.38300195 -0.078028888 0.9204461 0.12212992
-1.6055926 -1.6415268 0.14466456 -0.18021783 -0.026983829 0.98325652 0.12212992
-1.6234584 -1.9624577 0.11648461 -0.29377952 -0.11303011 0.94916689 0.12212992
-1.3159544 -1.748244 0.23531483 -0.45602825 0.068455361 0.88732862 0.12212992
-2.1747527 -1.024599 0.0029730932 -0.31447354 0.32332963 0.89250451 0.12212992
-1.0388485 -0.86128455 0.2542246 -0.72113556 0.23827814 0.65052831 0.12212992
-1.0642961 -1.662352 0.46183747 -0.87156296 0.1907348 0.45166162 0.12212992
-0.89612925 -1.1048644 0.92349392 -0.99277896 0.11080049 -0.04596905 0.12212992
-0.95293999 -1.1257225 0.48709315 -0.92318475 0.14565204 0.35568997 0.12212992
-1.2170275 -0.98343116 0.16411161 -0.40808538 0.24791272 0.87863851 0.12212992
-1.3247707 -1.0904989 0.15095602 -0.27615458 0.20783886 0.93837184 0.12212992
-1.1556675 -1.7812613 0.36477584 -0.75245172 0.16575594 0.63744909 0.12212992
-0.99205661 -1.6707214 0.93422878 -0.97211766 0.22686556 -0.059323039 0.12212992
-1.3317858 -0.5651117 -0.07604149 -0.28100234 0.57961458 0.76490825 0.12212992
-2.0117762 -0.71083325 -0.13309316 -0.27702844 0.65826428 0.69995958 0.12212992
-1.2553796 -0.70503658 0.040888164 -0.34858552 0.42873943 0.83346903 0.12212992
-1.9034833 -1.524003 0.10555875 -0.14908746 -0.060049638 0.98699898 0.12212992
-1.1749457 -0.82662803 0.13371691 -0.46404508 0.31810939 0.82672161 0.12212992
-1.7730204 -2.1497233 0.029194593 -0.36289111 -0.24009472 0.90036911 0.12212992
-1.1349477 -1.7193301 0.37330803 -0.76251334 0.16686884 0.62508255 0.12212992
-1.6841768 -0.63436753 -0.11131903 -0.15823908 0.6231879 0.76589638 0.12212992
-1.4033706 -0.9781934 0.10317732 -0.19829355 0.26955602 0.94234771 0.12212992
-0.9215557 -0.90236461 0.4789688 -0.94077319 0.14228953 0.30773285 0.12212992
-1.7581161 -0.56732613 -0.19338034 -0.20453621 0.7258442 0.65674591 0.12212992
-1.4102869 -0.62972736 -0.054804083 -0.21988809 0.54387063 0.80984813 0.12212992
-0.96727949 -1.0400186 0.4218443 -0.88569641 0.15696494 0.43692544 0.12212992
-1.3662661 -1.0714182 0.13549066 -0.23282555 0.21735451 0.94791842 0.12212992
-1.4453056 -1.0911621 0.12334929 -0.17041901 0.20801695 0.96316475 0.12212992
-1.9663813 -0.71413916 -0.11386808 -0.23778549 0.63487065 0.7351172 0.12212992
-2.0775695 -1.0304122 0.032641668 -0.21230176 0.29489437 0.93164653 0.12212992
-1.7790723 -0.77105761 -0.033034664 -0.12680218 0.50140464 0.85587066 0.12212992
-0.93020231 -1.1938897 0.59610331 -0.96561444 0.13885461 0.21979105 0.12212992
-1.0780739 -1.0577019 0.27633223 -0.66935575 0.19482107 0.71694326 0.12212992
-1.1605195 -1.0173348 0.20343518 -0.50446266 0.22469075 0.83368552 0.12212992
-1.2441218 -0.73858732 0.062232606 -0.36210579 0.39942801 0.84222126 0.12212992
-1.3095626 -0.78307217 0.057948101 -0.28661004 0.38531974 0.87714499 0.12212992
-1.5528998 -1.9742117 0.13851285 -0.3310613 -0.077659585 0.94040811 0.12212992
-1.8591156 -1.6729125 0.099353254 -0.17756218 -0.11579344 0.97727352 0.12212992
-1.5870824 -0.5633074 -0.15103289 -0.18153051 0.66873282 0.72100145 0.12212992
-2.2068145 -1.6085044 0.016344121 -0.38457391 -0.19199857 0.90290612 0.12212992
-1.6335224 -1.5793281 0.14129388 -0.15474756 -0.015697418 0.98782933 0.12212992
-1.3268704 -1.0768188 0.14726624 -0.27282733 0.21402293 0.9379549 0.12212992
-1.3258444 -1.1339239 0.15980868 -0.27885625 0.18937875 0.94147485 0.12212992
-1.3519208 -1.1275301 0.15122123 -0.25077984 0.19161093 0.94889128 0.12212992
-0.92887974 -1.0957749 0.54638034 -0.9541114 0.1351991 0.26719394 0.12212992
-0.95610768 -1.0859832 0.4634262 -0.91182953 0.14826927 0.38286176 0.12212992
-1.2745775 -1.1545737 0.18099256 -0.34352154 0.18249683 0.92124259 0.12212992
-1.3193947 -1.0528513 0.14385097 -0.27935711 0.22490205 0.93347669 0.12212992
-1.6425102 -1.8641719 0.12209018 -0.24602041 -0.099698529 0.96412355 0.12212992
-1.3883404 -0.97986883 0.10691669 -0.21036983 0.26745155 0.94032663 0.12212992
-1.2610372 -0.68971515 0.030503724 -0.34221762 0.44287419 0.82870352 0.12212992
-1.2952743 -1.8058108 0.2517283 -0.51455778 0.080559842 0.85366291 0.12212992
-1.5583894 -0.49599355 -0.21165657 -0.20724417 0.73110139 0.65003121 0.12212992
-0.99032497 -1.0721235 0.39022231 -0.8488726 0.16387381 0.50255418 0.12212992
-1.0035727 -0.87490904 0.3029775 -0.79339278 0.21107654 0.57094181 0.12212992
-1.059069 -0.72383803 0.17663859 -0.66437632 0.31543189 0.67757428 0.12212992
-1.1181533 -0.68345958 0.10665563 -0.55019999 0.38069072 0.74320561 0.12212992
-1.3435129 -0.93502635 0.10455997 -0.25028864 0.28982216 0.92377418 0.12212992
-1.521724 -0.67433381 -0.051236026 -0.16289067 0.53200114 0.83092809 0.12212992
-1.4106281 -1.3514509 0.170945 -0.22631505 0.10412624 0.9684726 0.12212992
-1.4694519 -0.81185234 0.031391934 -0.16338675 0.39522663 0.90393621 0.12212992
-1.5157235 -0.64880192 -0.066910125 -0.1702698 0.5559507 0.81358898 0.12212992
-1.8775687 -1.7974385 0.076952279 -0.2246705 -0.17283177 0.95898503 0.12212992
-1.7284801 -0.56430602 -0.18769868 -0.19682768 0.71808314 0.66754431 0.12212992
-1.070132 -1.7242585 0.47794199 -0.88475811 0.20188662 0.42005339 0.12212992
-1.7714936 -0.64839703 -0.11839545 -0.16992337 0.63767368 0.75133103 0.12212992
-0.90489501 -0.92493027 0.54974866 -0.96554404 0.12542401 0.22802092 0.12212992
-0.96318781 -0.84958869 0.35820562 -0.86634535 0.1876623 0.46284834 0.12212992
-1.1640644 -1.1203033 0.22682463 -0.51225555 0.19143772 0.83722508 0.12212992
-1.2538028 -1.1139042 0.18061425 -0.36695004 0.19725046 0.90908742 0.12212992
-1.2558274 -1.1312886 0.18350667 -0.36620343 0.19094354 0.91073358 0.12212992
-0.99297571 -1.1433023 0.4087331 -0.85674262 0.15866947 0.4907302 0.12212992
-1.1804924 -1.1139358 0.21571726 -0.48215172 0.19441965 0.8542428 0.12212992
-0.99882901 -1.7085179 0.79037249 -0.97240865 0.23046868 0.036132801 0.12212992
-1.3229172 -1.0621561 0.14502239 -0.27610135 0.22067125 0.93545294 0.12212992
-1.3681024 -0.55448043 -0.097130015 -0.25650904 0.60340804 0.7550509 0.12212992
-1.6120926 -0.4788619 -0.25020576 -0.21559644 0.76833278 0.60264659 0.12212992
-2.1585221 -1.480974 0.053934723 -0.29950708 -0.095444523 0.9493081 0.12212992
-2.1007917 -1.515584 0.067016087 -0.25544295 -0.10419044 0.96119368 0.12212992
-1.1604104 -0.67793506 0.075218372 -0.47934246 0.40867564 0.7766692 0.12212992
-0.90529972 -0.91281331 0.54145277 -0.96381754 0.12680624 0.23446946 0.12212992
-1.1875705 -1.0667034 0.20067528 -0.46359491 0.21057342 0.86066175 0.12212992
-0.96315819 -1.089574 0.44861293 -0.90064865 0.1511686 0.40740648 0.12212992
-1.4730549 -1.7502205 0.17378893 -0.28761035 -0.0046592951 0.95773619 0.12212992
-1.6732897 -1.7957081 0.12168962 -0.21293354 -0.094253689 0.97250992 0.12212992
-1.5376172 -1.6532457 0.15800515 -0.21296285 -0.0087703317 0.97702092 0.12212992
-1.0085039 -1.0036407 0.34019458 -0.80230945 0.1821119 0.5684495 0.12212992
-1.4118069 -1.2068588 0.15145436 -0.20431656 0.1556993 0.96644318 0.12212992
-1.4999577 -1.9277316 0.16042382 -0.34337026 -0.042193536 0.93825185 0.12212992
-1.1978931 -1.1363275 0.21122482 -0.45588529 0.18837576 0.86987537 0.12212992
-0.91639972 -1.1098974 0.60626698 -0.97165662 0.12907414 0.19804856 0.12212992
-1.6429739 -0.67326379 -0.074125573 -0.14352334 0.56742442 0.81082094 0.12212992
-0.9606021 -0.88150287 0.37590811 -0.87509871 0.17794415 0.45004234 0.12212992
