# .PCD v0.7 - Point Cloud Data file format
VERSION 0.7
FIELDS x y z normal_x normal_y normal_z curvature
SIZE 4 4 4 4 4 4 4
TYPE F F F F F F F
COUNT 1 1 1 1 1 1 1
WIDTH 108
HEIGHT 1
VIEWPOINT 0 0 0 1 0 0 0
POINTS 108
DATA ascii
0.36668009 0.51845402 1.0832494 -0.32264918 -0.32633343 0.88848412 0.044328157
0.72595048 0.85422117 1.4383707 -0.24300887 -0.70130259 0.67016518 0.044328157
0.38940808 0.3045108 1.0507609 -0.32855561 -0.031564273 0.94395703 0.044328157
0.27114686 -0.0096510416 1.0467005 -0.30992445 0.19715238 0.93009555 0.044328157
0.10868761 0.11992629 0.95808131 -0.40126789 0.18326816 0.89743906 0.044328157
0.24568355 -0.15552434 1.0699021 -0.29344371 0.19356781 0.93617427 0.044328157
0.29297343 0.61593771 1.1002963 -0.32776138 -0.46211317 0.82402903 0.044328157
0.98173106 -0.16693896 1.525529 -0.81749117 0.30230278 0.49022567 0.044328157
-0.30473983 -0.16139999 0.80237949 -0.62484568 0.38797951 0.67752475 0.044328157
0.47023895 0.38404268 1.0855718 -0.32013199 -0.13532037 0.93765873 0.044328157
0.48282757 -0.21250676 1.1588564 -0.34639853 0.16648917 0.92319524 0.044328157
0.5422349 -0.27203605 1.1926972 -0.39106357 0.14126965 0.90945709 0.044328157
0.47688439 0.061953299 1.1017326 -0.32456774 0.16474879 0.93140411 0.044328157
-0.28022817 -0.25918224 0.87118083 -0.54525506 0.33081144 0.77023423 0.044328157
-0.38652337 -0.43891793 0.86228597 -0.56936091 0.23451862 0.78792709 0.044328157
-0.42997348 -0.16579205 0.65579653 -0.75570184 0.44268578 0.48264277 0.044328157
0.39185742 0.40119204 1.0611819 -0.32825375 -0.15733743 0.9313938 0.044328157
0.37119859 0.29774296 1.0442011 -0.33131531 -0.022418965 0.9432537 0.044328157
0.32423434 0.21945024 1.0294635 -0.33390242 0.064187765 0.94041961 0.044328157
-0.014389051 0.36456758 0.85868227 -0.59844494 -0.013630899 0.80104798 0.044328157
0.077081755 0.10329903 0.94720948 -0.41548437 0.20207176 0.88687074 0.044328157
0.074196294 0.51491976 0.94613433 -0.50956261 -0.2776643 0.81440067 0.044328157
-0.049717739 -0.072881788 0.93652797 -0.43146175 0.28626525 0.85550743 0.044328157
0.23413682 0.32356355 0.99336141 -0.38156623 -0.036070321 0.92363745 0.044328157
0.99233997 -0.062915504 1.4785513 -0.78101176 0.31920969 0.5367735 0.044328157
0.48732632 -0.24128927 1.165549 -0.35229015 0.15321839 0.92326367 0.044328157
0.22349538 -0.093149252 1.0493199 -0.30393675 0.2080256 0.92970306 0.044328157
0.080727972 -0.04088036 0.98547846 -0.3622123 0.24128954 0.90032303 0.044328157
0.065911151 0.28161669 0.91313469 -0.49065143 0.059065726 0.86935174 0.044328157
0.27628577 0.11075605 1.0253907 -0.32841021 0.15172413 0.93226957 0.044328157
0.19639914 0.19088626 0.98388553 -0.37412786 0.11063893 0.92075372 0.044328157
0.1382087 0.38792139 0.95427495 -0.45283803 -0.10094282 0.8858602 0.044328157
-0.096121639 -0.32574534 0.98886198 -0.36289018 0.18992487 0.9122715 0.044328157
0.93945265 0.72004783 1.4143971 -0.41290307 -0.53439349 0.73751926 0.044328157
0.77801472 0.31632364 1.1980907 -0.43265882 -0.0055549243 0.90154064 0.044328157
0.40792397 -0.23743124 1.1364932 -0.31626573 0.15176892 0.93645191 0.044328157
0.37451935 -0.12798336 1.1051253 -0.30428848 0.1893335 0.9335745 0.044328157
0.38912514 0.054503042 1.0732633 -0.31193823 0.16828908 0.93507934 0.044328157
0.91697639 -0.24262941 1.467965 -0.77951229 0.25456616 0.57232571 0.044328157
0.14849761 -0.12154102 1.0308831 -0.31448865 0.21846849 0.92377943 0.044328157
0.17681734 -0.19241144 1.0558864 -0.29519179 0.19211183 0.93592459 0.044328157
-0.016373442 0.2211706 0.87049741 -0.54515541 0.15293881 0.82426655 0.044328157
0.0021022153 -0.020217698 0.9451198 -0.41679558 0.26557907 0.86933839 0.044328157
-0.050024983 -0.070068732 0.93543041 -0.43294692 0.28656155 0.85465747 0.044328157
0.077081755 0.10329903 0.94720948 -0.41548437 0.20207176 0.88687074 0.044328157
-0.40198773 -0.37108278 0.825019 -0.62014341 0.3171829 0.7175076 0.044328157
-0.086132057 -0.24388707 0.97308862 -0.38664311 0.24486239 0.88912851 0.044328157
1.1176707 -0.03094046 1.7128608 -0.89155531 0.35100383 0.28622624 0.044328157
0.35624501 0.5711289 1.1014067 -0.3153384 -0.40214947 0.85955656 0.044328157
0.039455213 0.41681275 0.90054232 -0.54840809 -0.11188372 0.82869208 0.044328157
-0.098248221 0.30047348 0.79310089 -0.67478198 0.10902662 0.72991949 0.044328157
0.31815779 0.35543308 1.0284412 -0.34833968 -0.089374132 0.9330979 0.044328157
0.23413682 0.32356355 0.99336141 -0.38156623 -0.036070321 0.92363745 0.044328157
0.34750146 0.27144131 1.0356575 -0.33425066 0.0092443265 0.9424389 0.044328157
0.28297675 0.29081443 1.011978 -0.35548908 -0.0047885128 0.93466818 0.044328157
0.25783262 -0.02033082 1.0445458 -0.31016859 0.2007159 0.92925161 0.044328157
0.21247779 -0.057088882 1.0375117 -0.31196988 0.2110092 0.92636383 0.044328157
0.29441917 -0.074672036 1.0682342 -0.3002882 0.19963948 0.93272239 0.044328157
0.23859486 -0.098018914 1.055311 -0.30124789 0.2052567 0.93119246 0.044328157
0.9296599 -0.17591913 1.4536375 -0.76175326 0.28424129 0.58218455 0.044328157
0.22515854 0.11411935 1.0063612 -0.3438541 0.15837799 0.92557049 0.044328157
0.18465571 0.061532978 1.00124 -0.34602782 0.19201864 0.91836464 0.044328157
0.066581234 0.2620602 0.91507757 -0.48347104 0.080320232 0.87166762 0.044328157
0.157456 0.19048733 0.96760345 -0.39473811 0.12033857 0.91087896 0.044328157
0.23721807 0.42980728 1.0071584 -0.38697785 -0.18272182 0.90380359 0.044328157
0.27626789 0.39423153 1.0170395 -0.3665458 -0.13717671 0.92023188 0.044328157
0.20929149 0.33571008 0.98340225 -0.39691439 -0.046636775 0.91667002 0.044328157
0.25452194 -0.61016893 1.0851625 -0.2448464 -0.23403959 0.94089091 0.044328157
0.14377031 0.38832769 0.95714772 -0.44847143 -0.10298499 0.88784426 0.044328157
0.17388791 0.29347512 0.96699917 -0.41115317 0.013273746 0.91146964 0.044328157
0.20029351 0.19327076 0.98518169 -0.37283283 0.10779249 0.9216162 0.044328157
0.78893799 0.32017863 1.2034127 -0.43971503 -0.0071697556 0.89810872 0.044328157
0.37119859 0.29774296 1.0442011 -0.33131531 -0.022418965 0.9432537 0.044328157
0.44341058 0.27812317 1.068854 -0.32333565 -0.0032840502 0.94627863 0.044328157
0.33778051 0.2226119 1.0340434 -0.33138108 0.059793197 0.94160044 0.044328157
0.23440912 0.6244719 1.0807313 -0.35467812 -0.47014809 0.80818576 0.044328157
0.13836727 0.55762106 0.99999666 -0.4415485 -0.36019811 0.82176167 0.044328157
0.27687794 0.44980779 1.0280715 -0.36541891 -0.21776238 0.90501302 0.044328157
1.0946058 0.13741221 1.5132684 -0.81678879 0.30225965 0.49142161 0.044328157
0.43192628 -0.27621269 1.1506051 -0.32847926 0.13003229 0.93551749 0.044328157
0.54263735 -0.32951665 1.2005622 -0.4015736 0.10034332 0.91031307 0.044328157
0.36153489 -0.1265655 1.1006229 -0.30201715 0.19001855 0.93417269 0.044328157
0.24541529 -0.15627146 1.0699724 -0.29337227 0.19339783 0.93623179 0.044328157
0.38912514 0.054503042 1.0732633 -0.31193823 0.16828908 0.93507934 0.044328157
0.74838692 -0.06444332 1.2511171 -0.50729352 0.23954615 0.82781094 0.044328157
-0.18290907 -0.18775633 0.90525013 -0.48745668 0.3172605 0.81346899 0.044328157
-0.38184774 -0.057290111 0.63271928 -0.76966834 0.43141353 0.4706305 0.044328157
0.25551397 -0.45072812 1.1063422 -0.26886496 -0.022903342 0.96290553 0.044328157
0.40893102 -0.4812313 1.1517941 -0.32436559 -0.066973545 0.94355792 0.044328157
0.079404779 -0.19768468 1.0250812 -0.31828219 0.21204291 0.92397743 0.044328157
0.14128058 0.44336113 0.96481556 -0.45348474 -0.18383051 0.8720997 0.044328157
-0.0001523032 0.39601755 0.8707369 -0.58923429 -0.064808056 0.80535883 0.044328157
0.94175315 -0.13456267 1.4487081 -0.75592148 0.29760429 0.58310753 0.044328157
0.23113231 0.42336753 1.0032772 -0.39051726 -0.1722742 0.90433282 0.044328157
0.1811377 0.3709667 0.97338063 -0.41918704 -0.087648466 0.90365922 0.044328157
0.29456374 0.12066039 1.0302324 -0.32606885 0.14342223 0.93440312 0.044328157
0.23687519 0.22941455 0.99630708 -0.36417332 0.067862608 0.92885548 0.044328157
0.78893799 0.32017863 1.2034127 -0.43971503 -0.0071697556 0.89810872 0.044328157
1.1041143 0.8230927 1.6168462 -0.53895706 -0.58692646 0.60418755 0.044328157
0.48821199 0.39145696 1.0928141 -0.31939501 -0.1452191 0.93642843 0.044328157
0.3330093 0.2371062 1.0315397 -0.33402359 0.046340592 0.94142485 0.044328157
0.23031725 0.64373863 1.0905455 -0.35042587 -0.49586195 0.79455817 0.044328157
0.58132273 -0.32104161 1.2173866 -0.43093926 0.11261119 0.89532679 0.044328157
0.37451935 -0.12798336 1.1051253 -0.30428848 0.1893335 0.9335745 0.044328157
-0.26526272 0.14004152 0.65911525 -0.77571839 0.32731375 0.53956157 0.044328157
-0.42528707 -0.1590918 0.65698463 -0.75462067 0.44211933 0.48484856 0.044328157
-0.25782886 -0.19398081 0.85803032 -0.55690891 0.35251334 0.75205505 0.044328157
0.45358962 -0.49468207 1.1667722 -0.35112289 -0.083104946 0.93263406 0.044328157
