# .PCD v0.7 - Point Cloud Data file format
VERSION 0.7
FIELDS x y z normal_x normal_y normal_z curvature
SIZE 4 4 4 4 4 4 4
TYPE F F F F F F F
COUNT 1 1 1 1 1 1 1
WIDTH 68
HEIGHT 1
VIEWPOINT 0 0 0 1 0 0 0
POINTS 68
DATA ascii
-0.71331525 -1.0986775 0.10292808 -1.1503845 1.959093 -0.44832048 0.17324178
-0.75645959 -1.0332739 0.588898 4.265646 1.3944489 1.4933895 0.17324178
-0.56901842 -0.68789238 0.055592328 1.0057425 1.5942711 0.42292607 0.17324178
-0.87193424 -1.1210353 0.4167957 -7.9879131 -1.8867128 0.29869965 0.17324178
-0.66080528 -0.89035535 0.11305089 -1.8409605 -0.41131181 1.0176917 0.17324178
-0.53186119 -1.2957168 0.15315269 4.4584131 0.43162143 2.2239199 0.17324178
-0.8542136 -1.0717854 -0.13778186 0.13208152 -0.7809515 1.840072 0.17324178
-0.85109699 -0.73354948 -0.033410896 -1.0431042 0.89556426 0.3284671 0.17324178
-0.78501534 -1.2112253 -0.10043216 -1.6590847 1.190133 -0.053983081 0.17324178
-0.5049547 -0.7112276 0.13968906 -0.198414 2.1990061 -0.34498316 0.17324178
-0.83895141 -0.82276112 -0.0046812375 -0.87199038 -0.54461253 1.3877275 0.17324178
-0.27843899 -1.0613494 0.38984859 -7.676753 3.5112615 -3.3997324 0.17324178
-0.53404379 -1.2366838 0.15211964 3.1396067 -0.073899291 2.2022507 0.17324178
-0.88489753 -0.7595824 -0.09550558 -1.35111 0.99739128 0.16913055 0.17324178
-0.94141823 -0.57591665 -0.090131678 3.7293735 -3.5216727 4.7895136 0.17324178
-0.72605813 -0.72667533 0.097259887 -0.74467379 -0.052801527 1.079004 0.17324178
-0.58064592 -0.87538606 0.29396132 -1.8265942 -0.54352289 1.1145508 0.17324178
-0.30942598 -1.2794693 0.18199778 -6.4503083 5.1850414 -4.2240725 0.17324178
-0.8686806 -0.8287065 -0.027246984 -0.9544366 -0.35117477 1.2284839 0.17324178
-0.86512709 -0.73777544 -0.10265767 -1.0955621 1.2948722 0.033342373 0.17324178
-0.64549619 -0.74225318 0.15975209 -0.81821686 0.27771747 0.82612473 0.17324178
-0.89640713 -0.90540981 -0.070544079 -0.60385996 -0.46896914 1.4111714 0.17324178
-0.69633192 -0.88086921 0.065994784 -1.5019 -0.67416537 1.2988667 0.17324178
-0.40140277 -0.62811679 -0.083015986 -5.8720222 -0.71042609 0.077219911 0.17324178
-0.64889956 -0.70670658 0.139419 -0.32836521 0.5430494 0.77975482 0.17324178
-0.79506963 -0.72809875 0.04463299 -0.81671816 0.18076327 0.8945756 0.17324178
-0.28854364 -1.075273 0.25048077 -3.2012355 -3.7018073 2.9381311 0.17324178
-0.8306495 -0.95851684 -0.072939813 -0.69186836 -1.0701122 1.8078197 0.17324178
-0.79833871 -1.2209064 -0.059461027 -2.1263371 1.6135448 -0.4843877 0.17324178
-0.94498491 -0.9789207 -0.070029534 1.8493851 0.23553562 1.6169643 0.17324178
-0.57303578 -0.56026518 -0.27696329 -1.3595856 0.11480521 0.78593558 0.17324178
-0.56072718 -0.52166396 -0.25934899 -1.075583 -0.14868186 1.0518434 0.17324178
-0.56571442 -0.52389437 -0.26488751 -1.1287428 -0.21125086 1.0805719 0.17324178
-0.56591564 -0.55061513 -0.26673615 -1.2466145 0.10055099 0.82817459 0.17324178
-0.57494962 -0.54840523 -0.28003725 -1.3303196 -0.10559614 0.94892102 0.17324178
-0.62537259 -0.6463874 -0.23798445 -1.3575448 1.7277802 -0.34514776 0.17324178
-0.56466627 -0.57576185 -0.25328732 -1.1268061 0.50879216 0.57594126 0.17324178
-0.67366165 -1.0099425 0.046720598 -1.8425095 -0.083384283 0.78717524 0.17324178
-0.42502165 -0.51611197 -0.064832248 -6.6828752 -1.9340904 0.70435417 0.17324178
-0.45278904 -0.52209866 -0.17823328 -2.0227168 -0.74696994 1.2013228 0.17324178
-0.65213627 -0.69364035 0.12835106 -0.17059481 0.63963926 0.75700963 0.17324178
-0.5160116 -0.70777446 0.17101875 -0.3069481 2.0948646 -0.30288935 0.17324178
-0.8621121 -0.761491 -0.020671785 -1.0702729 0.39801452 0.66979575 0.17324178
-0.85345048 -0.75088394 -0.0138053 -1.0237284 0.46758303 0.63426858 0.17324178
-0.65558946 -0.74605805 0.15090774 -0.85731941 0.15646407 0.90003771 0.17324178
-0.83821523 -0.8001861 0.0035843677 -0.88876766 -0.36286098 1.2554227 0.17324178
-0.69290781 -0.6959784 0.11378862 -0.46184924 0.34332371 0.88179076 0.17324178
-0.57306945 -1.1216905 0.20104209 1.1354383 -0.078494415 1.6335516 0.17324178
-0.57426006 -0.59881806 -0.24041116 -1.0421978 0.89897251 0.32633454 0.17324178
-0.66480309 -0.65832549 -0.1822751 -1.1960446 2.1344218 -0.58436131 0.17324178
-0.75458312 -0.68264443 -0.11177776 -0.95631474 2.1494393 -0.52648669 0.17324178
-0.77105957 -0.91416144 -0.016184017 -1.031848 -1.0322944 1.6842679 0.17324178
-0.61435986 -0.63077909 -0.055591237 0.34340438 1.6173296 0.21773884 0.17324178
-0.39754978 -0.38367608 -0.24736662 -7.5788245 7.3586545 -6.0711236 0.17324178
-0.85729301 -0.75679088 -0.015913721 -1.0408717 0.41026512 0.66959083 0.17324178
-0.94570017 -0.57662052 -0.087377392 3.6234934 -3.60938 4.8208346 0.17324178
-0.65270621 -0.63344944 -0.089050874 -0.55972517 1.8792785 -0.22376803 0.17324178
-0.57725489 -0.76218021 0.32108751 -1.6819179 0.3486445 0.52989072 0.17324178
-0.66683888 -1.0783801 0.29621056 1.6719803 1.9124365 0.38982272 0.17324178
-0.56321961 -0.55598193 -0.26150373 -1.200124 0.21339709 0.76226842 0.17324178
-0.80628175 -0.76298678 0.035225492 -0.84256399 -0.19423017 1.150296 0.17324178
-0.79203898 -0.69236761 -0.075413771 -0.89844823 1.8273473 -0.28399327 0.17324178
-0.91251272 -0.97546476 -0.092072867 0.49769142 -0.34373945 1.6376562 0.17324178
-0.88341784 -0.8089785 -0.038395725 -1.1255341 0.02389513 0.91650873 0.17324178
-0.83075398 -1.2587849 -0.0032879263 -4.0510898 1.0800658 -0.65935832 0.17324178
-1.0857908 -0.58974397 -0.052205231 0.25901228 -10.928623 8.9959154 0.17324178
-0.90016925 -0.76486027 -0.17911562 -1.2573066 0.72775841 0.38507375 0.17324178
-1.322318 -0.65995783 -0.06632711 21.417431 10.83542 -0.2358617 0.17324178
