# .PCD v0.7 - Point Cloud Data file format
VERSION 0.7
FIELDS x y z normal_x normal_y normal_z curvature
SIZE 4 4 4 4 4 4 4
TYPE F F F F F F F
COUNT 1 1 1 1 1 1 1
WIDTH 118
HEIGHT 1
VIEWPOINT 0 0 0 1 0 0 0
POINTS 118
DATA ascii
-0.11437948 0.035081897 0.89631718 -0.46817389 0.12789623 0.87433159 0.066408254
-0.13328877 -0.3155438 0.93748105 -0.46817389 0.12789623 0.87433159 0.066408254
-0.16392492 -0.22134678 0.90729743 -0.46817389 0.12789623 0.87433159 0.066408254
0.33268237 -0.36225209 1.1938246 -0.46817389 0.12789623 0.87433159 0.066408254
0.12035222 -0.18123202 1.0536499 -0.46817389 0.12789623 0.87433159 0.066408254
0.12788178 -0.24298823 1.0667154 -0.46817389 0.12789623 0.87433159 0.066408254
0.0051486231 0.25168473 0.92863584 -0.46817389 0.12789623 0.87433159 0.066408254
-0.041723367 0.20185187 0.91082704 -0.46817389 0.12789623 0.87433159 0.066408254
-0.031399526 -0.23961446 0.9809323 -0.46817389 0.12789623 0.87433159 0.066408254
0.29728919 0.22023855 1.0896668 -0.46817389 0.12789623 0.87433159 0.066408254
0.27458951 -0.39596611 1.1676496 -0.46817389 0.12789623 0.87433159 0.066408254
0.014280904 -0.10586797 0.98582828 -0.46817389 0.12789623 0.87433159 0.066408254
0.14373019 -0.079725377 1.0513197 -0.46817389 0.12789623 0.87433159 0.066408254
0.15987885 0.26670629 1.0092912 -0.46817389 0.12789623 0.87433159 0.066408254
-0.20638387 -0.2235482 0.88488418 -0.46817389 0.12789623 0.87433159 0.066408254
0.0050626914 -0.23379171 0.99960476 -0.46817389 0.12789623 0.87433159 0.066408254
0.0037199717 -0.24429514 1.0004222 -0.46817389 0.12789623 0.87433159 0.066408254
0.06775786 -0.3097651 1.0442891 -0.46817389 0.12789623 0.87433159 0.066408254
0.15559673 0.26699856 1.0069555 -0.46817389 0.12789623 0.87433159 0.066408254
0.27215844 0.036881249 1.1030314 -0.46817389 0.12789623 0.87433159 0.066408254
-0.045867436 -0.090514995 0.95137513 -0.46817389 0.12789623 0.87433159 0.066408254
-0.13874102 -0.13936462 0.90879023 -0.46817389 0.12789623 0.87433159 0.066408254
-0.089905679 0.11924507 0.89711076 -0.46817389 0.12789623 0.87433159 0.066408254
0.21405666 0.14972928 1.0554127 -0.46817389 0.12789623 0.87433159 0.066408254
0.24804042 -0.35971698 1.148131 -0.46817389 0.12789623 0.87433159 0.066408254
0.067906827 0.18106546 0.97257078 -0.46817389 0.12789623 0.87433159 0.066408254
0.07978148 0.074739181 0.99448252 -0.46817389 0.12789623 0.87433159 0.066408254
0.08212889 0.18362644 0.97981155 -0.46817389 0.12789623 0.87433159 0.066408254
0.16739428 0.14726529 1.0307871 -0.46817389 0.12789623 0.87433159 0.066408254
0.010179084 -0.069454238 0.97830534 -0.46817389 0.12789623 0.87433159 0.066408254
0.23533562 -0.20308007 1.1184154 -0.46817389 0.12789623 0.87433159 0.066408254
0.17109726 -0.24869156 1.09069 -0.46817389 0.12789623 0.87433159 0.066408254
0.16675003 0.026733708 1.0480733 -0.46817389 0.12789623 0.87433159 0.066408254
0.12236886 0.033350579 1.0233408 -0.46817389 0.12789623 0.87433159 0.066408254
0.065589547 0.004360422 0.99717814 -0.46817389 0.12789623 0.87433159 0.066408254
-0.30530614 -0.18965697 0.82695717 -0.46817389 0.12789623 0.87433159 0.066408254
-0.16510396 -0.0099017033 0.87573612 -0.46817389 0.12789623 0.87433159 0.066408254
-0.2215392 -0.24437308 0.87981528 -0.46817389 0.12789623 0.87433159 0.066408254
0.0046780976 -0.23506999 0.99958581 -0.46817389 0.12789623 0.87433159 0.066408254
-0.07137993 -0.24362515 0.96011084 -0.46817389 0.12789623 0.87433159 0.066408254
0.33681491 0.049380649 1.1358243 -0.46817389 0.12789623 0.87433159 0.066408254
0.33452186 -0.068437926 1.1518308 -0.46817389 0.12789623 0.87433159 0.066408254
1.6521928 -0.059269559 1.8560562 -0.46817389 0.12789623 0.87433159 0.066408254
0.071511194 -0.31356853 1.0468553 -0.46817389 0.12789623 0.87433159 0.066408254
0.28451368 0.123739 1.0969418 -0.46817389 0.12789623 0.87433159 0.066408254
0.027852135 -0.16019176 1.0010417 -0.46817389 0.12789623 0.87433159 0.066408254
0.055749748 0.20450479 0.96263242 -0.46817389 0.12789623 0.87433159 0.066408254
-0.079003684 -0.079450272 0.93201327 -0.46817389 0.12789623 0.87433159 0.066408254
-0.11149882 -0.14753592 0.92457277 -0.46817389 0.12789623 0.87433159 0.066408254
0.19634092 0.21137007 1.0369098 -0.46817389 0.12789623 0.87433159 0.066408254
0.3397283 -0.10258961 1.1596143 -0.46817389 0.12789623 0.87433159 0.066408254
0.31038302 -0.21811911 1.1608006 -0.46817389 0.12789623 0.87433159 0.066408254
0.077063039 0.11069294 0.98776764 -0.46817389 0.12789623 0.87433159 0.066408254
0.19747886 -0.083131678 1.0805985 -0.46817389 0.12789623 0.87433159 0.066408254
0.018284556 -0.071968757 0.98301333 -0.46817389 0.12789623 0.87433159 0.066408254
0.17873143 0.060229596 1.0495892 -0.46817389 0.12789623 0.87433159 0.066408254
0.18886285 -0.026955137 1.0677675 -0.46817389 0.12789623 0.87433159 0.066408254
0.33227369 0.34431693 1.0902498 -0.46817389 0.12789623 0.87433159 0.066408254
-0.1053111 -0.081056692 0.91816157 -0.46817389 0.12789623 0.87433159 0.066408254
0.20707147 0.16795167 1.0490068 -0.46817389 0.12789623 0.87433159 0.066408254
0.28428638 -0.23788022 1.1497173 -0.46817389 0.12789623 0.87433159 0.066408254
0.081582606 0.29884401 0.96266514 -0.46817389 0.12789623 0.87433159 0.066408254
0.29216626 -0.41075808 1.1792251 -0.46817389 0.12789623 0.87433159 0.066408254
0.083195254 0.11139989 0.99094778 -0.46817389 0.12789623 0.87433159 0.066408254
0.26955572 0.03233834 1.1023023 -0.46817389 0.12789623 0.87433159 0.066408254
0.20098653 -0.084307656 1.0826488 -0.46817389 0.12789623 0.87433159 0.066408254
0.10355972 0.18874268 0.99053866 -0.46817389 0.12789623 0.87433159 0.066408254
0.088374481 0.18464075 0.98300749 -0.46817389 0.12789623 0.87433159 0.066408254
0.14315309 0.11842518 1.0220255 -0.46817389 0.12789623 0.87433159 0.066408254
-0.024239015 -0.081012033 0.96156633 -0.46817389 0.12789623 0.87433159 0.066408254
0.080976538 -0.12572725 1.0244465 -0.46817389 0.12789623 0.87433159 0.066408254
0.23479356 0.044914257 1.0818489 -0.46817389 0.12789623 0.87433159 0.066408254
0.27739352 0.099112399 1.0967315 -0.46817389 0.12789623 0.87433159 0.066408254
0.15650308 0.3008661 1.0024867 -0.46817389 0.12789623 0.87433159 0.066408254
-0.11006922 -0.14836715 0.92545986 -0.46817389 0.12789623 0.87433159 0.066408254
0.12650283 -0.24276389 1.0659442 -0.46817389 0.12789623 0.87433159 0.066408254
-0.081406914 -0.078913286 0.93064791 -0.46817389 0.12789623 0.87433159 0.066408254
0.0026023763 -0.4010728 1.0227571 -0.46817389 0.12789623 0.87433159 0.066408254
0.3518534 0.45402095 1.0846866 -0.46817389 0.12789623 0.87433159 0.066408254
0.081582606 0.29884401 0.96266514 -0.46817389 0.12789623 0.87433159 0.066408254
0.15959541 0.27042601 1.0085952 -0.46817389 0.12789623 0.87433159 0.066408254
0.37823439 0.20829667 1.1347569 -0.46817389 0.12789623 0.87433159 0.066408254
0.18784839 0.15527038 1.0405686 -0.46817389 0.12789623 0.87433159 0.066408254
0.15510134 0.12060672 1.0281042 -0.46817389 0.12789623 0.87433159 0.066408254
0.16769065 -0.20183428 1.0820117 -0.46817389 0.12789623 0.87433159 0.066408254
0.023632977 -0.15836139 0.99851465 -0.46817389 0.12789623 0.87433159 0.066408254
0.001928898 -0.23412944 0.99797612 -0.46817389 0.12789623 0.87433159 0.066408254
-0.063228182 -0.29639792 0.97219539 -0.46817389 0.12789623 0.87433159 0.066408254
0.038143087 -0.30993128 1.0284557 -0.46817389 0.12789623 0.87433159 0.066408254
-0.035872925 -0.30985805 0.98881209 -0.46817389 0.12789623 0.87433159 0.066408254
0.2237124 0.10759085 1.066747 -0.46817389 0.12789623 0.87433159 0.066408254
0.22615354 0.045525137 1.0771331 -0.46817389 0.12789623 0.87433159 0.066408254
0.19997229 0.043288354 1.063441 -0.46817389 0.12789623 0.87433159 0.066408254
0.18129607 0.20890068 1.029215 -0.46817389 0.12789623 0.87433159 0.066408254
0.38128814 -0.19597578 1.1955286 -0.46817389 0.12789623 0.87433159 0.066408254
0.22679722 -0.20016518 1.113417 -0.46817389 0.12789623 0.87433159 0.066408254
0.38253117 -0.48715737 1.2387879 -0.46817389 0.12789623 0.87433159 0.066408254
-0.28074655 -0.2769219 0.85287297 -0.46817389 0.12789623 0.87433159 0.066408254
-0.03980051 -0.16612859 0.96568441 -0.46817389 0.12789623 0.87433159 0.066408254
0.10322978 -0.22851823 1.0513984 -0.46817389 0.12789623 0.87433159 0.066408254
0.13107929 -0.61291099 1.1225394 -0.46817389 0.12789623 0.87433159 0.066408254
0.088948086 0.11198176 0.9939431 -0.46817389 0.12789623 0.87433159 0.066408254
0.34361461 -0.48889795 1.2182041 -0.46817389 0.12789623 0.87433159 0.066408254
0.54263085 -0.072896168 1.263918 -0.46817389 0.12789623 0.87433159 0.066408254
0.15983348 0.20878379 1.0177397 -0.46817389 0.12789623 0.87433159 0.066408254
-0.28940237 -0.2622005 0.84608465 -0.46817389 0.12789623 0.87433159 0.066408254
0.31487763 -0.44228297 1.1959977 -0.46817389 0.12789623 0.87433159 0.066408254
0.23762891 -0.3922855 1.1473202 -0.46817389 0.12789623 0.87433159 0.066408254
0.24919811 0.063295566 1.0868732 -0.46817389 0.12789623 0.87433159 0.066408254
0.16263634 -0.02529349 1.0534811 -0.46817389 0.12789623 0.87433159 0.066408254
0.43308997 -0.49927306 1.2676327 -0.46817389 0.12789623 0.87433159 0.066408254
-0.0028465008 -0.39641431 1.0191579 -0.46817389 0.12789623 0.87433159 0.066408254
0.1367968 0.23477031 1.001603 -0.46817389 0.12789623 0.87433159 0.066408254
0.18843395 0.21369842 1.0323353 -0.46817389 0.12789623 0.87433159 0.066408254
0.2141661 -0.19265072 1.1055542 -0.46817389 0.12789623 0.87433159 0.066408254
0.056176595 -0.19670573 1.0215496 -0.46817389 0.12789623 0.87433159 0.066408254
0.061787702 0.005861958 0.99492276 -0.46817389 0.12789623 0.87433159 0.066408254
-0.10920594 -0.057614353 0.91264689 -0.46817389 0.12789623 0.87433159 0.066408254
