# .PCD v0.7 - Point Cloud Data file format
VERSION 0.7
FIELDS x y z normal_x normal_y normal_z curvature
SIZE 4 4 4 4 4 4 4
TYPE F F F F F F F
COUNT 1 1 1 1 1 1 1
WIDTH 133
HEIGHT 1
VIEWPOINT 0 0 0 1 0 0 0
POINTS 133
DATA ascii
-1.1758904 -1.6992506 0.30831778 -0.5997445 0.14809081 0.78636867 0.055513237
-1.6305742 -1.7991339 0.075776666 -0.36161259 0.23727748 0.90162951 0.055513237
-1.3479133 -1.1031207 0.14709257 -0.40164414 0.17240648 0.89942092 0.055513237
-1.3593471 -1.1136128 0.14394726 -0.39813179 0.15875196 0.90348709 0.055513237
-1.653596 -0.66197836 -0.10000011 0.051671647 0.58033526 0.81273675 0.055513237
-0.89064753 -1.1204398 0.48992285 -0.73040944 0.23548283 0.6411317 0.055513237
-1.0277737 -1.1339245 0.35797659 -0.63900179 0.21597505 0.73826247 0.055513237
-1.5221664 -1.9508175 0.18603165 -0.38759232 0.4626126 0.79734671 0.055513237
-1.4875256 -0.79152477 -0.0097524785 -0.1199949 0.50238019 0.85627997 0.055513237
-1.5006996 -0.68766028 -0.082889549 -0.028170019 0.62687486 0.77861053 0.055513237
-0.94583756 -1.808302 0.5486601 -0.71938002 0.22938421 0.65564877 0.055513237
-1.6740686 -1.7681866 0.051630918 -0.34252283 0.19389622 0.91928363 0.055513237
-1.1551948 -1.0293356 0.22811873 -0.50211084 0.31154636 0.80673635 0.055513237
-1.7837749 -1.657523 8.5814871e-05 -0.28719208 0.0592908 0.95603627 0.055513237
-1.4788814 -1.7250885 0.1267817 -0.43371731 0.1601281 0.88670641 0.055513237
-1.184397 -1.0778049 0.22664905 -0.50494242 0.24692814 0.827079 0.055513237
-1.5774297 -1.6149992 0.069934085 -0.37603283 0.054172788 0.92502141 0.055513237
-1.3231003 -1.0497919 0.14599827 -0.39472991 0.2365658 0.8878203 0.055513237
-1.3680991 -1.048315 0.12657812 -0.36388919 0.22210133 0.90457487 0.055513237
-0.82183254 -1.0509756 0.54243892 -0.75174242 0.30956766 0.58228099 0.055513237
-1.19814 -1.1180342 0.22906852 -0.51141578 0.20121393 0.83544409 0.055513237
-1.4013997 -1.2133125 0.13761367 -0.40322164 0.070146397 0.9124099 0.055513237
-0.99856907 -1.0120231 0.33509505 -0.60632819 0.36152542 0.70828348 0.055513237
-0.92352378 -1.1343492 0.45850831 -0.71208525 0.22164671 0.66618872 0.055513237
-0.81324369 -1.2824237 0.63022387 -0.80517226 0.10278993 0.58406496 0.055513237
-1.1918788 -0.5651353 -0.20728572 -0.042630348 0.84554136 0.53220534 0.055513237
-1.4348847 -0.6394856 -0.12438013 -0.014874444 0.70755261 0.70650411 0.055513237
-0.89636248 -1.8110158 0.60610557 -0.74554235 0.2239963 0.62768805 0.055513237
-1.7070001 -0.61315405 -0.13106167 0.10390456 0.60816312 0.78698248 0.055513237
-1.026 -1.1608331 0.36693013 -0.64806986 0.19057496 0.73735106 0.055513237
-1.1574706 -1.9937612 0.4461503 -0.54872823 0.49645278 0.67263067 0.055513237
-1.7817883 -0.58977884 -0.13719648 0.14219886 0.59487379 0.79114139 0.055513237
-1.5425245 -1.6946409 0.092366792 -0.40050197 0.12452213 0.90779537 0.055513237
-2.0811121 -0.66825157 -0.039367884 0.17762662 0.32250965 0.92975068 0.055513237
-0.95772475 -1.1605012 0.43107942 -0.69556367 0.1957372 0.69128728 0.055513237
-1.6420822 -1.741466 0.058575742 -0.35583162 0.16446188 0.91996527 0.055513237
-1.3088912 -1.7530141 0.22734544 -0.52337795 0.19631805 0.82917714 0.055513237
-0.98158646 -1.7363646 0.48935413 -0.7082532 0.16834088 0.68559372 0.055513237
-1.102941 -1.7638077 0.38214049 -0.63770843 0.20237702 0.74321699 0.055513237
-1.0502572 -0.91432142 0.23669407 -0.49743846 0.49109489 0.71510893 0.055513237
-1.8751892 -2.0811653 0.14607768 -0.21769109 0.67304122 0.70684236 0.055513237
-1.7312386 -1.7071161 0.021307508 -0.31454805 0.11635695 0.94208312 0.055513237
-0.9786526 -1.0963057 0.38985717 -0.66104543 0.25990179 0.70389628 0.055513237
-0.97171879 -1.1721799 0.42035601 -0.68875808 0.18458655 0.70109922 0.055513237
-1.2789403 -0.82318395 0.058614276 -0.26204675 0.55318809 0.79076827 0.055513237
-1.5516688 -1.9413621 0.16663334 -0.37729508 0.44861001 0.81018358 0.055513237
-1.7119268 -2.1224649 0.24552326 -0.24949452 0.72431856 0.64274025 0.055513237
-1.5100409 -1.7830482 0.12427817 -0.41806963 0.22357537 0.88047248 0.055513237
-1.1162941 -1.1005502 0.27842942 -0.56354827 0.23716593 0.79130632 0.055513237
-1.2259841 -0.97185993 0.16466357 -0.41698423 0.36607641 0.83193278 0.055513237
-2.2739801 -2.1268423 0.098810643 -0.11702973 0.744385 0.65741545 0.055513237
-1.3222022 -0.67765218 -0.076670475 -0.098132603 0.71358031 0.69366646 0.055513237
-1.3464773 -1.1041986 0.14794144 -0.40304029 0.17184432 0.89890379 0.055513237
-1.4312651 -1.1020886 0.11278223 -0.34668526 0.14456458 0.9267742 0.055513237
-1.3684564 -1.1814575 0.14947817 -0.41539013 0.10047657 0.90407717 0.055513237
-1.1131103 -1.4632013 0.33208412 -0.63045126 0.052911479 0.77442342 0.055513237
-1.3394107 -1.0877717 0.14779362 -0.40102249 0.19037364 0.89606857 0.055513237
-1.3858924 -1.0165832 0.11141744 -0.3360011 0.25159806 0.90763521 0.055513237
-1.1712866 -1.9078916 0.38150296 -0.57375437 0.37737778 0.72690576 0.055513237
-1.0493833 -1.0826094 0.3232657 -0.60472322 0.26810011 0.74995476 0.055513237
-1.1397612 -1.092239 0.25965586 -0.54324865 0.24139513 0.80412018 0.055513237
-0.90395087 -1.0776901 0.45794433 -0.70649105 0.28307584 0.64864355 0.055513237
-1.1543019 -1.0894599 0.24915451 -0.53160304 0.24124311 0.81191128 0.055513237
-1.6484377 -1.1194592 0.049515903 -0.22664432 0.048530392 0.97276777 0.055513237
-1.1882594 -1.0973116 0.22983307 -0.51043755 0.22482087 0.83000547 0.055513237
-1.567423 -1.9702899 0.17639305 -0.36244214 0.49427119 0.79014665 0.055513237
-1.6277796 -1.9164553 0.12013929 -0.350678 0.41005981 0.84194767 0.055513237
-1.1574112 -0.97144556 0.20161261 -0.46498266 0.38681838 0.79634333 0.055513237
-1.1097151 -1.0754106 0.27508816 -0.55782586 0.26629862 0.78607595 0.055513237
-1.5376782 -1.8095127 0.11857463 -0.40370148 0.25594622 0.87836021 0.055513237
-1.6839207 -1.7931727 0.053683672 -0.33851984 0.22559652 0.91351545 0.055513237
-0.9408713 -1.0902959 0.4244099 -0.68552577 0.26838782 0.67677349 0.055513237
-1.285368 -1.0382488 0.16008469 -0.41475347 0.26268876 0.87119126 0.055513237
-0.91372645 -1.6286718 0.54280144 -0.75136912 0.09400899 0.65315139 0.055513237
-0.91407681 -1.651033 0.54580295 -0.7504282 0.10503046 0.65255356 0.055513237
-1.8202213 -0.62886447 -0.10380279 0.12954479 0.52891749 0.83872789 0.055513237
-0.84571838 -0.95671213 0.45310262 -0.68057156 0.43915868 0.58648276 0.055513237
-0.83752495 -1.0649453 0.5296396 -0.74697626 0.29433659 0.59614801 0.055513237
-1.5752156 -0.56324655 -0.19390829 0.094817854 0.7189098 0.68860608 0.055513237
-1.3231003 -1.0497919 0.14599827 -0.39472991 0.2365658 0.8878203 0.055513237
-1.4624624 -0.71375424 -0.059884004 -0.066818006 0.61415607 0.78635091 0.055513237
-1.1859827 -0.97402912 0.18664804 -0.44646505 0.37537456 0.81225789 0.055513237
-1.3885404 -1.6654689 0.16451266 -0.47927463 0.11280477 0.87038553 0.055513237
-1.1868001 -1.1294401 0.23881502 -0.52360463 0.19280255 0.82985866 0.055513237
-1.2902025 -1.1393669 0.18162492 -0.45448548 0.15674253 0.87685502 0.055513237
-1.3194267 -1.1423191 0.16739687 -0.4355177 0.14566575 0.88831627 0.055513237
-1.0261292 -1.6755623 0.4322218 -0.68662602 0.12720846 0.71579516 0.055513237
-0.90487933 -1.1613221 0.48744056 -0.7315926 0.19571702 0.65304452 0.055513237
-1.2380147 -1.0324978 0.18190908 -0.44474643 0.28469342 0.84920567 0.055513237
-1.4616928 -1.7328527 0.13675235 -0.44262427 0.16932502 0.88057524 0.055513237
-1.4616183 -1.7524434 0.14079897 -0.44270769 0.1903923 0.87621951 0.055513237
-1.6303632 -0.70201558 -0.073658794 0.013552734 0.54402626 0.83895874 0.055513237
-1.3673049 -0.91877991 0.083259046 -0.28659195 0.38464868 0.8774454 0.055513237
-1.4242289 -0.73442078 -0.039753482 -0.10260268 0.60670602 0.78827691 0.055513237
-1.2024881 -1.0541841 0.20857848 -0.48099798 0.26915944 0.83438247 0.055513237
-1.36695 -1.1840798 0.15046148 -0.41717386 0.099067435 0.90341109 0.055513237
-1.292038 -0.6623801 -0.088669464 -0.097053416 0.73969239 0.66590977 0.055513237
-0.8541168 -1.0618488 0.50771695 -0.73443466 0.29955494 0.60899305 0.055513237
-0.97501248 -1.0870794 0.38979709 -0.66008264 0.27052289 0.70079118 0.055513237
-0.95354658 -1.1138526 0.42048597 -0.6849888 0.2421266 0.68714267 0.055513237
-1.5488465 -1.6989632 0.090189859 -0.39764065 0.12807496 0.90855861 0.055513237
-1.4397998 -0.95723116 0.075563043 -0.26762372 0.30203348 0.9149608 0.055513237
-1.1854259 -1.1146653 0.23611362 -0.51923156 0.20763177 0.82902813 0.055513237
-0.88988012 -1.1380936 0.49703473 -0.73588711 0.21753655 0.64120823 0.055513237
-1.5635053 -1.5608368 0.073386729 -0.37622416 0.022908663 0.92624539 0.055513237
-3.2163222 -1.2683915 -0.0060999352 0.072574265 -0.43665975 0.8966946 0.055513237
-1.2694497 -0.6819337 -0.063464291 -0.12716284 0.72810447 0.67356771 0.055513237
-1.2846773 -0.80333382 0.042489652 -0.24002656 0.57774037 0.78013033 0.055513237
-1.3680404 -1.0685285 0.1313162 -0.37342981 0.20031287 0.9057731 0.055513237
-1.3433125 -0.93337125 0.09779603 -0.31210673 0.37488863 0.87295353 0.055513237
-1.4308743 -1.6208378 0.13727361 -0.45319593 0.076453753 0.88812625 0.055513237
-1.4237527 -1.8163004 0.17754482 -0.45884562 0.26789343 0.84716809 0.055513237
-1.3671751 -0.73958462 -0.026951009 -0.13526605 0.62556785 0.76835406 0.055513237
-1.4343607 -1.6856967 0.1428189 -0.45551839 0.12600736 0.88126338 0.055513237
-1.5520257 -1.7197222 0.091961496 -0.39713505 0.14872436 0.90562952 0.055513237
-1.1332489 -1.1412519 0.27737314 -0.56586421 0.19292134 0.80161029 0.055513237
-1.2602519 -0.7737565 0.026614713 -0.22520427 0.62558639 0.74694359 0.055513237
-1.2984389 -1.0859871 0.16652188 -0.42818293 0.20554696 0.8800056 0.055513237
-1.8118587 -0.61067855 -0.11703883 0.1383238 0.55508882 0.82020909 0.055513237
-2.0258877 -1.5552037 -0.05753899 -0.18010581 -0.064989641 0.98149794 0.055513237
-1.416021 -1.0746552 0.11372745 -0.34486613 0.17651172 0.92190617 0.055513237
-1.3282882 -1.0281712 0.13769351 -0.38024411 0.2596682 0.88768625 0.055513237
-1.3363832 -1.1225616 0.15592942 -0.41693676 0.15793642 0.89510882 0.055513237
-1.3592521 -1.1250173 0.14592801 -0.4025166 0.14844601 0.90329629 0.055513237
-1.2059911 -0.81691176 0.080584705 -0.30039719 0.58793712 0.75106025 0.055513237
-0.89800453 -1.1070503 0.47657779 -0.721214 0.24990124 0.64606482 0.055513237
-1.2182368 -1.0995128 0.21250594 -0.48995796 0.21486291 0.84485215 0.055513237
-1.8157178 -1.8435248 0.022928601 -0.28518707 0.28880605 0.91392529 0.055513237
-1.5620308 -0.68023938 -0.089674965 0.0029978936 0.60572588 0.79566777 0.055513237
-1.4300976 -1.0165992 0.09587314 -0.30778986 0.23381005 0.92227882 0.055513237
-1.3353205 -1.084873 0.14900589 -0.40254474 0.19468914 0.89445728 0.055513237
-1.4913346 -1.801568 0.13828552 -0.42638689 0.24747813 0.87002802 0.055513237
-0.79193079 -0.99994093 0.55134475 -0.7467097 0.3712908 0.55187654 0.055513237
