# .PCD v0.7 - Point Cloud Data file format
VERSION 0.7
FIELDS x y z normal_x normal_y normal_z curvature
SIZE 4 4 4 4 4 4 4
TYPE F F F F F F F
COUNT 1 1 1 1 1 1 1
WIDTH 87
HEIGHT 1
VIEWPOINT 0 0 0 1 0 0 0
POINTS 87
DATA ascii
-0.43412331 -0.52336788 0.28276449 0.39045256 -0.89653957 -0.20919761 0.12781505
-0.49423826 -0.55900425 0.39312217 0.53559488 -0.82918972 0.15994553 0.12781505
-0.38072106 -0.50469774 0.29073241 0.30879736 -0.93635213 -0.16699952 0.12781505
-0.96131319 -0.77253318 0.90334576 0.85662395 -0.15207238 0.49302065 0.12781505
-0.54314065 -0.48690477 0.58740526 0.45965469 -0.70159209 0.54450536 0.12781505
-0.3158735 -0.47956115 0.41268474 0.24443963 -0.93589902 0.25365782 0.12781505
-0.25239241 -0.42898408 0.49844486 0.18376282 -0.85893613 0.47797483 0.12781505
-0.76356894 -0.51820624 1.0986607 0.45361197 -0.73855668 -0.49876869 0.12781505
-0.46728897 -0.45424724 0.57358801 0.36938536 -0.76001197 0.53473008 0.12781505
-0.27559653 -0.26062337 0.73326904 0.31899846 -0.75689459 0.57039511 0.12781505
-0.27410093 -0.41364905 0.53237748 0.2019005 -0.82570016 0.52674043 0.12781505
-0.47270861 -0.53707469 0.26555926 0.44707775 -0.85123473 -0.2748107 0.12781505
-0.52225316 -0.39351621 0.69569534 0.39691165 -0.75722355 0.51872307 0.12781505
-0.46504366 -0.53562039 0.41803581 0.46567017 -0.8504405 0.24474937 0.12781505
-0.60058463 -0.53946495 0.57702297 0.56230968 -0.62266546 0.54414666 0.12781505
-0.44338107 -0.53493178 0.34799498 0.43674949 -0.89950287 0.012018999 0.12781505
-0.43017983 -0.52836293 0.32906535 0.40764493 -0.91168296 -0.05157318 0.12781505
-0.51746863 -0.56432366 0.26695192 0.5389396 -0.79312962 -0.28370669 0.12781505
-0.62973726 -0.7012971 0.32131225 0.85668766 -0.49961632 -0.12833464 0.12781505
-0.40478653 -0.51698267 0.36573568 0.37005851 -0.92529935 0.082932524 0.12781505
-0.42242968 -0.52534825 0.34265542 0.39750025 -0.91760033 -0.0017936267 0.12781505
-0.48478448 -0.48501816 0.54180449 0.41056228 -0.75899166 0.50534171 0.12781505
-0.26452473 -0.38712466 0.56787962 0.20223592 -0.79494697 0.57197893 0.12781505
-0.32238594 -0.25430658 0.77280086 0.36609954 -0.79575408 0.48243818 0.12781505
-0.32928407 -0.20795704 0.9247734 0.5272491 -0.84971046 0.00071739173 0.12781505
-0.28501159 -0.19362766 1.0084445 0.56811422 -0.76771992 -0.296399 0.12781505
-0.51055145 -0.56293786 0.42103392 0.55605614 -0.79317153 0.24835555 0.12781505
-0.39177579 -0.25918463 0.8325423 0.42663029 -0.85549164 0.29346317 0.12781505
-0.32349363 -0.24853253 0.78344566 0.37899122 -0.80215377 0.46142715 0.12781505
-0.46454072 -0.5314135 0.26104552 0.42761558 -0.85758603 -0.28581652 0.12781505
-0.57603335 -0.57108963 0.5094254 0.60196561 -0.65265292 0.4600887 0.12781505
-0.25162452 -0.15462245 0.94468611 0.61369312 -0.789186 -0.023795873 0.12781505
-0.51837635 -0.47770005 0.57916188 0.43092522 -0.72412866 0.5384618 0.12781505
-0.32614085 -0.4786264 0.42535198 0.25526974 -0.9228881 0.28829667 0.12781505
-0.26536462 -0.44849613 0.46534917 0.19242179 -0.89370883 0.40528804 0.12781505
-0.4891192 -0.43969795 0.60870594 0.37926021 -0.74399549 0.55012035 0.12781505
-0.70164186 -0.95064676 0.44761756 0.97997439 -0.03255444 0.19644442 0.12781505
-0.4486616 -0.53114933 0.40182453 0.44176286 -0.87546653 0.1959691 0.12781505
-0.28236559 -0.17792575 0.91526073 0.56140518 -0.82414412 0.074904792 0.12781505
-0.30453992 -0.46613365 0.44493547 0.22973193 -0.90970266 0.34592527 0.12781505
-0.4692221 -0.53631669 0.26892233 0.44350258 -0.85666984 -0.26348111 0.12781505
-0.34581581 -0.35081112 0.64923924 0.27056026 -0.76913548 0.57898861 0.12781505
-0.44324604 -0.49575287 0.48838511 0.38667971 -0.81882411 0.42427105 0.12781505
-0.49632984 -0.54832906 0.25987878 0.48765561 -0.82023686 -0.29900417 0.12781505
-0.4151879 -0.36625928 0.66392893 0.31378281 -0.77085966 0.55436063 0.12781505
-0.26467687 -0.31114891 0.66471076 0.25020561 -0.74850631 0.61411357 0.12781505
-0.25759253 -0.39097109 0.56006294 0.19648193 -0.80032808 0.5664537 0.12781505
-0.43504843 -0.41196892 0.081366472 0.2036611 -0.75613385 -0.62191939 0.12781505
-0.50237226 -0.56562001 0.38620675 0.55561191 -0.82043868 0.13481778 0.12781505
-0.40478653 -0.51698267 0.36573568 0.37005851 -0.92529935 0.082932524 0.12781505
-0.42242968 -0.52534825 0.34265542 0.39750025 -0.91760033 -0.0017936267 0.12781505
-0.5423038 -0.59697646 0.38097429 0.64995015 -0.75216746 0.10866902 0.12781505
-0.56647402 -0.62130708 0.33960024 0.70974785 -0.70284325 -0.047637995 0.12781505
-0.16245747 -0.074188739 0.98654175 0.7579115 -0.63972431 -0.12776102 0.12781505
-0.24531053 -0.15058914 0.95921099 0.62642854 -0.7752822 -0.080776356 0.12781505
-0.4347274 -0.41871527 0.60274941 0.32622206 -0.76719379 0.55226153 0.12781505
-0.4024801 -0.48712099 0.4698104 0.33903319 -0.85655349 0.38906637 0.12781505
-0.655967 -0.64249581 0.17794344 0.69868165 -0.48830152 -0.52288198 0.12781505
-0.32468638 -0.22365068 0.83540982 0.44491121 -0.83229691 0.33065975 0.12781505
-0.38498518 -0.24209061 0.89174056 0.47671673 -0.87389886 0.095089279 0.12781505
-0.51590568 -0.40087283 0.68037915 0.39129448 -0.75114304 0.53166986 0.12781505
-0.47648245 -0.54921979 0.30676085 0.48649409 -0.86207819 -0.1419318 0.12781505
-0.53480422 -0.55354649 0.2180399 0.51339084 -0.74673802 -0.42286187 0.12781505
-0.38715526 -0.47224191 0.48857278 0.31186521 -0.84717417 0.43015808 0.12781505
-0.37269816 -0.50611621 0.32692644 0.31232873 -0.94897866 -0.043477785 0.12781505
-0.3283028 -0.38913643 0.59002388 0.24435924 -0.78543526 0.56866515 0.12781505
-0.30570698 -0.41267717 0.54656643 0.2249244 -0.81379718 0.53585738 0.12781505
-0.56480491 -0.53390181 0.54679197 0.53369039 -0.67184168 0.51361793 0.12781505
-0.39957291 -0.34779975 0.68093646 0.31057593 -0.77493364 0.55047292 0.12781505
-0.28236559 -0.17792575 0.91526073 0.56140518 -0.82414412 0.074904792 0.12781505
-0.64574194 -0.63111258 0.18053173 0.68212175 -0.51533687 -0.51878494 0.12781505
-0.63066185 -0.60971868 0.17775738 0.64493698 -0.55541033 -0.52495301 0.12781505
-0.33629534 -0.26824939 0.76032287 0.35195771 -0.79464394 0.49463803 0.12781505
-0.40175295 -0.26444128 0.83167177 0.42496055 -0.85733783 0.290483 0.12781505
-0.27499908 -0.41657442 0.52809954 0.20211683 -0.82967865 0.52036732 0.12781505
-0.34506053 -0.45587713 0.49281093 0.26388043 -0.85582292 0.44489804 0.12781505
-0.55945301 -0.57858139 0.22958159 0.58127147 -0.70875621 -0.39973509 0.12781505
-0.42800328 -0.32997072 0.72494984 0.34565729 -0.79281354 0.50196385 0.12781505
-0.54181629 -0.43321553 0.65561724 0.4209545 -0.72381538 0.54670703 0.12781505
-0.443088 -0.52097899 0.25997347 0.38833037 -0.87725836 -0.28216526 0.12781505
-0.37435505 -0.32140124 0.7041443 0.31158888 -0.77970254 0.54311717 0.12781505
-0.42065212 -0.52264017 0.37488583 0.39680704 -0.91116196 0.11103155 0.12781505
-0.58190799 -0.63576055 0.38430512 0.74765617 -0.6547479 0.11097509 0.12781505
-0.67799938 -0.83206666 0.35533652 0.97207093 -0.23188451 -0.036161628 0.12781505
-0.5138998 -0.42117286 0.65096283 0.39288998 -0.73889083 0.54742837 0.12781505
-0.45097232 -0.49477437 0.49718535 0.39245811 -0.80746287 0.44043192 0.12781505
-0.52577418 -0.56698769 0.2588062 0.54757017 -0.77701581 -0.31050509 0.12781505
