# .PCD v0.7 - Point Cloud Data file format
VERSION 0.7
FIELDS x y z normal_x normal_y normal_z curvature
SIZE 4 4 4 4 4 4 4
TYPE F F F F F F F
COUNT 1 1 1 1 1 1 1
WIDTH 93
HEIGHT 1
VIEWPOINT 0 0 0 1 0 0 0
POINTS 93
DATA ascii
0.059416857 0.30107129 0.89620036 -0.33581114 -0.076830119 0.93879074 0.086610302
0.36467588 -0.12042068 1.1769143 -0.23863028 0.56029785 0.79317206 0.086610302
0.41319481 0.22546598 1.0475754 -0.42544883 0.15227711 0.892079 0.086610302
0.065746292 0.020546716 0.94253761 -0.49233624 0.36517757 0.79009515 0.086610302
0.36334905 0.27901745 1.0169719 -0.4117521 0.091798618 0.9066605 0.086610302
0.097856119 0.066586226 0.94234794 -0.46290055 0.30734617 0.83142132 0.086610302
0.046715237 0.30006713 0.89156771 -0.33585474 -0.08624763 0.93795681 0.086610302
0.23893133 0.099830568 1.0013558 -0.40276909 0.31429598 0.85964823 0.086610302
0.78845179 0.13220638 1.2625269 -0.52060032 -0.077157281 0.85030705 0.086610302
1.0441401 0.16779655 1.471849 -0.59797901 -0.48906395 0.63500988 0.086610302
0.3701075 -0.051455352 1.1336403 -0.29770258 0.49110875 0.81864852 0.086610302
0.41050273 0.45933113 1.0399024 -0.43494353 -0.09249524 0.89569455 0.086610302
0.35904649 0.279737 1.0149506 -0.41003016 0.090694033 0.90755159 0.086610302
0.45469943 0.28509298 1.0604018 -0.45522767 0.077177957 0.88702387 0.086610302
0.14852877 0.12998526 0.94854647 -0.42433995 0.23347765 0.87488502 0.086610302
0.16803139 0.22279382 0.94000536 -0.38685226 0.10420025 0.91623557 0.086610302
0.25813967 0.51556933 0.98707598 -0.2984381 -0.1737735 0.93847615 0.086610302
0.23865281 0.46200427 0.9720155 -0.30443412 -0.13561052 0.94283068 0.086610302
0.73190004 -0.38759455 1.3394706 0.18613499 0.33980536 0.92189264 0.086610302
-0.19256462 -0.099100418 0.75636333 -0.80013543 0.20738927 0.56282586 0.086610302
2.0228143 0.15365241 2.7438481 -0.34291434 -0.91183114 0.22577365 0.086610302
0.474498 0.13104968 1.0979015 -0.40838164 0.2410439 0.88041031 0.086610302
0.00027067756 -0.029843993 0.92293686 -0.55571818 0.40079531 0.72838205 0.086610302
0.17723684 0.63991463 0.99674571 -0.19323637 -0.28762341 0.93804717 0.086610302
0.1224794 0.57874149 0.9676345 -0.18297896 -0.2744123 0.94404268 0.086610302
0.42272103 0.26599029 1.0463595 -0.43607998 0.10417112 0.89385831 0.086610302
0.16563471 0.073361762 0.97578233 -0.42777148 0.33258715 0.84047449 0.086610302
0.34683269 0.043223601 1.0739093 -0.36390638 0.3897022 0.8459931 0.086610302
0.11645427 0.34349388 0.91936201 -0.31418994 -0.082651682 0.94575542 0.086610302
0.30022103 0.26199898 0.99101347 -0.39211863 0.10385817 0.91403306 0.086610302
0.24511585 0.24598268 0.96957034 -0.38397595 0.10841592 0.91695607 0.086610302
0.18281491 0.51432568 0.96506846 -0.2483841 -0.20312659 0.94712454 0.086610302
-0.18072367 -0.13599946 0.79173464 -0.79404116 0.31598383 0.51928109 0.086610302
0.33010721 0.59384924 1.027958 -0.3415525 -0.21228048 0.91557574 0.086610302
0.34270039 0.75814104 1.0805335 -0.33594987 -0.30876964 0.88983089 0.086610302
0.21527594 0.62753296 1.0016049 -0.22720395 -0.26718712 0.93647712 0.086610302
0.35476676 -0.13623032 1.1854151 -0.22732764 0.57909495 0.78292477 0.086610302
0.57304615 -0.10062397 1.2192237 -0.20843361 0.38759553 0.89795607 0.086610302
0.2734172 -0.044138413 1.0906491 -0.34169039 0.51297724 0.78746557 0.086610302
0.032919914 0.080263764 0.90057838 -0.49642748 0.22976096 0.83711988 0.086610302
0.17793818 -0.064395025 1.0594521 -0.38745153 0.5447076 0.74375731 0.086610302
-0.19107878 -0.24273236 0.87665772 -0.76385111 0.52715075 0.37234867 0.086610302
1.0036278 0.26888192 1.5112423 -0.68032336 -0.48494646 0.54953355 0.086610302
0.041621435 0.55050498 0.94456118 -0.15865579 -0.29792947 0.941311 0.086610302
-0.0023847437 0.48417071 0.91602492 -0.1860667 -0.28476033 0.94036734 0.086610302
0.12422536 0.0068141511 0.98436916 -0.44962335 0.42303467 0.78668958 0.086610302
0.24948981 0.033370513 1.0350465 -0.38788661 0.41184711 0.8245762 0.086610302
-0.11985584 -0.15018351 0.88860297 -0.69617945 0.47742382 0.53609765 0.086610302
-0.11897435 -0.12879948 0.87198681 -0.70170826 0.43473023 0.56446004 0.086610302
-0.50800776 -0.62205708 1.7255602 -0.30979818 0.94664758 0.088788591 0.086610302
0.31322926 0.45494795 0.99740767 -0.35674196 -0.10401235 0.92839462 0.086610302
0.23937999 0.39352432 0.9647615 -0.33140385 -0.069186971 0.94094878 0.086610302
0.37410885 0.38690358 1.0181144 -0.41117606 -0.026037637 0.91118401 0.086610302
-0.13880824 -0.27274138 1.0206618 -0.61351883 0.68872392 0.386334 0.086610302
0.10566279 -0.15066287 1.0934342 -0.39105791 0.65266711 0.64892173 0.086610302
0.29494172 0.20774376 0.99697781 -0.39718941 0.17317373 0.90124995 0.086610302
0.22812667 0.1038309 0.99483865 -0.4055872 0.30595043 0.8613323 0.086610302
0.18281491 0.51432568 0.96506846 -0.2483841 -0.20312659 0.94712454 0.086610302
0.29734218 0.50521535 0.998478 -0.33172068 -0.15264636 0.93094599 0.086610302
0.22036299 0.43556812 0.9625532 -0.3045547 -0.1190368 0.94502735 0.086610302
0.18030052 0.56433129 0.97617686 -0.22506131 -0.24009427 0.94429982 0.086610302
0.48755142 0.44678712 1.0799143 -0.50536674 -0.086515464 0.85855663 0.086610302
0.13442451 0.60379231 0.97733879 -0.17863819 -0.28388333 0.94207144 0.086610302
0.71277374 0.36915526 1.2397535 -0.67161548 -0.16091849 0.72321361 0.086610302
0.55959982 -0.2388266 1.2856884 -0.035615854 0.4826878 0.87506801 0.086610302
0.4119418 0.11702985 1.0736076 -0.39285851 0.28198078 0.87529939 0.086610302
-0.020245701 -0.071280822 0.93173462 -0.57680392 0.4579525 0.67644417 0.086610302
-0.099746995 -0.17678291 0.94076347 -0.64722782 0.56247389 0.51450872 0.086610302
-0.29988357 0.11657669 0.66544586 -0.60249233 -0.34398448 0.72019279 0.086610302
-0.16231547 -0.22224535 0.90294689 -0.72453654 0.54744643 0.41874719 0.086610302
0.34315395 0.061049003 1.0643573 -0.37244642 0.36803395 0.85195929 0.086610302
0.133076 0.59198749 0.97356385 -0.18307117 -0.27760485 0.94309092 0.086610302
0.011105848 0.46803039 0.91408134 -0.20115158 -0.26548299 0.94289809 0.086610302
0.8530525 -0.040851649 1.2824488 -0.31737775 -0.03514155 0.94764787 0.086610302
0.23937999 0.39352432 0.9647615 -0.33140385 -0.069186971 0.94094878 0.086610302
0.75078452 -0.16140062 1.2708248 -0.12369399 0.21387187 0.96899879 0.086610302
0.50326753 0.15583992 1.1053681 -0.4287867 0.19897744 0.8812207 0.086610302
0.99599975 0.0036091155 1.3485111 -0.41066265 -0.30885902 0.85788244 0.086610302
-0.21780077 -0.12488002 0.72732008 -0.83928657 0.18953781 0.50958169 0.086610302
0.17992933 0.45156044 0.95244962 -0.27625278 -0.15276329 0.94886661 0.086610302
0.136923 -0.32571632 1.321555 -0.15234196 0.79851729 0.58237624 0.086610302
0.04897983 -0.049727499 0.97073728 -0.50435662 0.47743392 0.71950072 0.086610302
0.087294951 -0.14127944 1.0726327 -0.4177534 0.63734102 0.6475172 0.086610302
0.36331826 0.29801664 1.0152693 -0.41123122 0.069643535 0.9088667 0.086610302
0.24243982 0.64270639 1.0128163 -0.24575399 -0.26760277 0.93166178 0.086610302
0.2944676 0.50407439 0.99727017 -0.32975012 -0.1525394 0.93166333 0.086610302
0.73608166 0.58314019 1.3496106 -0.79188287 -0.3031286 0.53012693 0.086610302
1.0689058 0.16768432 1.4954278 -0.59429854 -0.52087438 0.61277986 0.086610302
0.39111179 -0.18139917 1.2281678 -0.1626976 0.59174156 0.78953874 0.086610302
0.37433207 0.031735837 1.0908884 -0.35309535 0.39604998 0.84762496 0.086610302
0.40642366 -0.069325514 1.1568747 -0.27159128 0.49082476 0.82784611 0.086610302
0.1710594 -0.061885595 1.0540068 -0.39380312 0.54064363 0.74338657 0.086610302
-0.23872523 -0.38241377 1.076843 -0.62944359 0.74527586 0.21991971 0.086610302
