# .PCD v0.7 - Point Cloud Data file format
VERSION 0.7
FIELDS x y z normal_x normal_y normal_z curvature
SIZE 4 4 4 4 4 4 4
TYPE F F F F F F F
COUNT 1 1 1 1 1 1 1
WIDTH 83
HEIGHT 1
VIEWPOINT 0 0 0 1 0 0 0
POINTS 83
DATA ascii
0.41638735 -0.51079869 1.3125523 0.16926712 -0.17089744 -0.97064036 0.039186571
1.0043021 0.053649925 1.4898329 0.74312598 -0.18108793 -0.64418238 0.039186571
0.19724612 -0.056217387 1.166688 0.21028329 -0.2356229 -0.94882178 0.039186571
0.2198922 0.47430798 1.0312127 -0.0039808564 -0.2578719 -0.96617091 0.039186571
-0.025447726 0.42828056 1.0125802 0.24802724 -0.13300174 -0.95957959 0.039186571
0.39513853 0.33684382 1.0756062 0.035437055 -0.33887622 -0.94016337 0.039186571
0.25696984 0.35212266 1.0659469 0.043228325 -0.27617687 -0.96013421 0.039186571
0.313063 0.29798985 1.0850055 0.05351435 -0.29830727 -0.95296854 0.039186571
0.22570939 -0.079599701 1.1786661 0.19878811 -0.23957342 -0.95030934 0.039186571
0.2393596 0.17415038 1.1142739 0.12642944 -0.26134205 -0.95693046 0.039186571
0.31479034 0.4103038 1.0493594 -0.0046504019 -0.30660406 -0.9518258 0.039186571
1.2312276 -0.079316981 1.8157657 0.83273017 -0.0055189077 -0.55365151 0.039186571
0.44061264 -0.59696126 1.3307296 0.16014816 -0.14675574 -0.97612262 0.039186571
0.25571844 -0.1669299 1.2067659 0.19708148 -0.23536164 -0.95171624 0.039186571
0.87656885 0.027459372 1.3717412 0.61728537 -0.24405523 -0.74792767 0.039186571
0.0085249674 0.078741424 1.0821277 0.3406702 -0.17875275 -0.92303371 0.039186571
0.41568246 0.51644862 1.0069505 -0.070922509 -0.37083256 -0.92598766 0.039186571
-0.026638273 0.42100316 1.0132793 0.25273484 -0.13319652 -0.95832342 0.039186571
0.38206187 0.24888146 1.1056207 0.075160272 -0.32080191 -0.94415945 0.039186571
0.36143976 0.22596183 1.1115429 0.082666911 -0.30981889 -0.94719505 0.039186571
0.21661893 -0.038363401 1.1663489 0.19590564 -0.24101515 -0.95054334 0.039186571
0.2862488 0.22323328 1.1056672 0.091495179 -0.28158775 -0.9551633 0.039186571
0.25415543 0.24489012 1.0963284 0.093141705 -0.27063376 -0.95816594 0.039186571
0.31268606 0.41447625 1.0480299 -0.0065978519 -0.30573723 -0.95209306 0.039186571
0.40967324 0.31914163 1.0826758 0.047903471 -0.34283751 -0.93817252 0.039186571
0.31635642 -0.29288548 1.2492189 0.18593611 -0.22143659 -0.95728451 0.039186571
0.38604435 0.48187384 1.0222944 -0.051744506 -0.35006937 -0.9352935 0.039186571
0.14657809 -0.05106229 1.1533133 0.24387611 -0.22433874 -0.94350231 0.039186571
0.093534648 -0.1156549 1.1529138 0.30014148 -0.21045326 -0.93038946 0.039186571
-0.10873686 -0.10754456 1.0596554 0.51144439 -0.14826615 -0.84642887 0.039186571
-0.030623876 -0.060379788 1.0926629 0.41670072 -0.1727789 -0.89247292 0.039186571
-0.070757382 0.1169114 1.0424573 0.41604975 -0.14324166 -0.89798909 0.039186571
-0.074782386 0.0066936291 1.0587735 0.44991654 -0.15144235 -0.88013655 0.039186571
0.21018471 0.5106892 1.0217444 -0.019176545 -0.25147858 -0.96767288 0.039186571
0.2356434 0.51332921 1.0203091 -0.03571092 -0.26542711 -0.96346933 0.039186571
0.36143976 0.22596183 1.1115429 0.082666911 -0.30981889 -0.94719505 0.039186571
0.40292835 0.21721989 1.1182938 0.092526041 -0.32340509 -0.94172615 0.039186571
0.84159672 0.075809106 1.3272656 0.57803148 -0.28245443 -0.76557106 0.039186571
0.28427979 0.037053455 1.1586856 0.15211533 -0.26336908 -0.95262671 0.039186571
0.35545015 -0.016258147 1.185081 0.15519984 -0.27107137 -0.94996488 0.039186571
0.20767188 -0.12775385 1.1866956 0.21584573 -0.23247562 -0.94834894 0.039186571
0.22563854 -0.080194667 1.1788013 0.19892368 -0.2395097 -0.95029706 0.039186571
-0.069734618 0.20162486 1.0298609 0.38835052 -0.13539657 -0.91151065 0.039186571
0.10726368 0.054981727 1.1182557 0.25115669 -0.21454443 -0.94387025 0.039186571
0.10352742 -0.0029287764 1.1303903 0.26890764 -0.2135627 -0.93919098 0.039186571
0.056968894 -0.080482937 1.1326965 0.32877228 -0.20091778 -0.92278969 0.039186571
0.17993206 0.2904664 1.0763341 0.11328448 -0.24098387 -0.9638949 0.039186571
0.2242839 0.209122 1.1028541 0.12061169 -0.25752538 -0.95871449 0.039186571
0.15361804 0.035193328 1.134387 0.21915041 -0.22859983 -0.94853318 0.039186571
0.23144951 0.34743699 1.0659387 0.057017367 -0.26426202 -0.96276402 0.039186571
0.15790793 0.41971228 1.0428847 0.067716874 -0.22769335 -0.97137541 0.039186571
0.19095123 0.32075867 1.0698676 0.092601031 -0.24572159 -0.96490723 0.039186571
0.51624608 0.34795764 1.0785235 0.088549852 -0.39600483 -0.91396886 0.039186571
0.64076078 0.491891 1.0210569 0.13299105 -0.5003776 -0.85553241 0.039186571
0.38999209 0.50619447 1.012872 -0.067675225 -0.3542648 -0.93269318 0.039186571
0.39513853 0.33684382 1.0756062 0.035437055 -0.33887622 -0.94016337 0.039186571
0.41262716 0.3141962 1.0846409 0.051211946 -0.34335819 -0.93780726 0.039186571
0.62314993 0.31463197 1.1116568 0.21942632 -0.42301044 -0.8791554 0.039186571
0.45312443 -0.12512027 1.2334017 0.19141811 -0.25997022 -0.94645369 0.039186571
1.2312276 -0.079316981 1.8157657 0.83273017 -0.0055189077 -0.55365151 0.039186571
0.83646995 -0.3192727 1.4233282 0.52358907 -0.12747984 -0.84237957 0.039186571
0.42847249 -0.035239909 1.2030292 0.17111634 -0.2787931 -0.94498336 0.039186571
0.80577397 -0.036798395 1.3399712 0.52857333 -0.24788672 -0.81188816 0.039186571
-0.10110128 -0.14451501 1.0708708 0.50994837 -0.15418056 -0.84627479 0.039186571
-0.2578851 -0.1616209 0.95629865 0.66626465 -0.094907843 -0.7396512 0.039186571
0.40481722 -0.49652842 1.3079821 0.16966143 -0.17574123 -0.96970618 0.039186571
0.30732262 -0.23201941 1.2330568 0.1860323 -0.23088771 -0.95503026 0.039186571
0.18724439 0.55918902 1.0101511 -0.032493118 -0.23626469 -0.97114527 0.039186571
0.35545015 -0.016258147 1.185081 0.15519984 -0.27107137 -0.94996488 0.039186571
0.26658645 0.32439724 1.0744616 0.053104669 -0.27958339 -0.95865166 0.039186571
0.21607199 0.40762281 1.0489266 0.034769844 -0.25702718 -0.96577847 0.039186571
0.31268606 0.41447625 1.0480299 -0.0065978519 -0.30573723 -0.95209306 0.039186571
0.20266709 0.36681342 1.0589724 0.063437521 -0.25086838 -0.96594036 0.039186571
0.25331426 0.24231119 1.0969738 0.094532311 -0.27017012 -0.95816058 0.039186571
-0.040392078 -0.2775791 1.1315407 0.46139032 -0.18135624 -0.86846352 0.039186571
0.39328134 0.5485155 0.99635845 -0.097056583 -0.35904625 -0.92825955 0.039186571
0.3785103 0.35986212 1.066883 0.020667003 -0.33399171 -0.94234943 0.039186571
0.44999695 0.28356647 1.0986689 0.080148287 -0.35347706 -0.93200332 0.039186571
0.38011819 0.24459131 1.1069188 0.076726556 -0.31942788 -0.94449925 0.039186571
-0.025447726 0.42828056 1.0125802 0.24802724 -0.13300174 -0.95957959 0.039186571
0.42715001 -0.11137195 1.2245148 0.18107475 -0.26152727 -0.94805878 0.039186571
0.41231176 0.087733284 1.1624762 0.13900541 -0.30194145 -0.94313776 0.039186571
-3.2817934 -3.7702737 5.9417601 0.77315801 -0.44777685 0.44913539 0.039186571
