# .PCD v0.7 - Point Cloud Data file format
VERSION 0.7
FIELDS x y z normal_x normal_y normal_z curvature
SIZE 4 4 4 4 4 4 4
TYPE F F F F F F F
COUNT 1 1 1 1 1 1 1
WIDTH 175
HEIGHT 1
VIEWPOINT 0 0 0 1 0 0 0
POINTS 175
DATA ascii
-0.52539557 -0.3543348 -0.030431513 -0.33065194 0.77962911 0.5318343 0.12936817
-1.1091937 -1.0730362 -0.18046732 -0.1839482 -0.16735658 0.96858394 0.12936817
-1.1406562 -1.1900645 -0.20138028 -0.1397678 -0.085130379 0.98651803 0.12936817
-0.87395519 -0.67144197 -0.043195687 -0.39330471 0.012969958 0.91931671 0.12936817
-0.69711983 -1.0501153 0.049703866 -0.81847811 -0.061839782 0.57120001 0.12936817
-1.0652663 -1.1889635 -0.18803778 -0.20683882 -0.097592361 0.97349548 0.12936817
-0.60563445 -0.57427371 0.12322991 -0.71230143 0.37490967 0.59335434 0.12936817
-0.84655738 -0.67584884 -0.03079658 -0.4272995 0.01954123 0.90389895 0.12936817
-0.86558014 -0.64153558 -0.040796675 -0.39000008 0.059906181 0.91886407 0.12936817
-0.89017898 -0.56652379 -0.059681125 -0.32628238 0.17538324 0.92885983 0.12936817
-0.95842838 -0.38450637 -0.148563 -0.16221912 0.52449042 0.83581978 0.12936817
-1.062341 -1.1843548 -0.18693799 -0.21024622 -0.10198908 0.97231412 0.12936817
-0.94368571 -0.42626727 -0.12193546 -0.19754218 0.4403213 0.87583917 0.12936817
-0.88957828 -0.4116452 -0.11717393 -0.20635308 0.49412173 0.84454846 0.12936817
-0.91805524 -0.44522133 -0.10667696 -0.22249205 0.41014084 0.88446695 0.12936817
-0.84391779 -1.1069039 -0.093432911 -0.50749373 -0.14233334 0.84981841 0.12936817
-0.95720172 -1.0872853 -0.14261553 -0.33303648 -0.17045093 0.92737973 0.12936817
-1.033232 -0.92307675 -0.13302353 -0.26151189 -0.19515528 0.945265 0.12936817
-1.0763136 -1.037022 -0.16707465 -0.21507685 -0.18414456 0.95907909 0.12936817
-1.3393631 -0.38250312 -0.21125385 -0.13891557 0.48098314 0.86565447 0.12936817
-1.3094598 -0.37195763 -0.21253797 -0.13451266 0.50379229 0.85328758 0.12936817
-0.66391236 -0.52895838 0.042366419 -0.54330379 0.4040629 0.73590362 0.12936817
-0.6954602 -1.1037614 0.047533523 -0.84075701 -0.032255236 0.54045093 0.12936817
-0.85917848 -0.33490199 -0.16645615 -0.1445733 0.65640402 0.74042714 0.12936817
-1.0668491 -1.1098561 -0.1779094 -0.21459793 -0.15446804 0.96441036 0.12936817
-0.62925589 -0.68748051 0.14522414 -0.80890524 0.17942002 0.55989355 0.12936817
-0.63623148 -0.38667339 -0.050851639 -0.31455895 0.67692977 0.66544628 0.12936817
-0.56164366 -0.63377774 0.24152263 -0.87844306 0.32707983 0.34836274 0.12936817
-0.62016892 -1.0826495 0.39562169 -0.98147464 0.17989951 -0.065906622 0.12936817
-0.98150748 -1.1818354 -0.16529299 -0.30106118 -0.10910545 0.94734269 0.12936817
-0.68188274 -0.65964335 0.076808564 -0.67747277 0.16118941 0.71766889 0.12936817
-0.65677094 -0.31620979 -0.137532 -0.18408942 0.76326489 0.6193043 0.12936817
-0.95619524 -0.66411155 -0.073995873 -0.3110964 -0.0065010306 0.95035613 0.12936817
-0.86863965 -0.64667147 -0.041783974 -0.38900253 0.050724819 0.91983914 0.12936817
-0.87132144 -0.63240921 -0.043845993 -0.3795678 0.071282439 0.92241371 0.12936817
-0.80814552 -1.1138017 -0.071115457 -0.57896119 -0.12398286 0.80587357 0.12936817
-0.86381644 -1.1720022 -0.11429629 -0.48129058 -0.10306089 0.87048137 0.12936817
-0.71712583 -0.66413748 0.047221374 -0.61589056 0.12228916 0.77828282 0.12936817
-0.65137744 -0.60990155 0.091204293 -0.68078619 0.26969975 0.68102288 0.12936817
-0.86817664 -1.4228075 0.81131655 -0.79290658 0.4943924 -0.35619557 0.12936817
-0.83313775 -1.1476141 -0.092952378 -0.53541648 -0.11233637 0.83708405 0.12936817
-0.56567717 -0.63815093 0.23551321 -0.87695819 0.3170577 0.36113539 0.12936817
-0.55612916 -0.59429854 0.21630961 -0.83304352 0.38835216 0.3939811 0.12936817
-1.4500837 -1.8018483 1.0819051 -0.41246149 0.87308496 -0.25999656 0.12936817
-0.5532338 -0.63341212 0.26402411 -0.89170808 0.33635631 0.30285493 0.12936817
-0.60628664 -0.99983722 0.39776474 -0.98712987 0.15630768 -0.033801403 0.12936817
-0.7524485 -1.1188155 -0.024626512 -0.70536149 -0.084671028 0.70377266 0.12936817
-0.67821831 -1.1776401 0.081141554 -0.91003925 0.059911896 0.41016969 0.12936817
-0.64693832 -0.84678727 0.14346273 -0.86968452 0.020295819 0.4931905 0.12936817
-0.69068825 -0.68804312 0.073859841 -0.68440598 0.11262068 0.72035062 0.12936817
-0.61248934 -0.55334771 0.10213964 -0.66511172 0.40515801 0.62727457 0.12936817
-1.0908042 -1.100552 -0.1814826 -0.19487429 -0.15665527 0.9682371 0.12936817
-1.2032657 -1.2001045 -0.20940731 -0.091438562 -0.06275703 0.99383122 0.12936817
-0.62295914 -1.0779508 0.43735799 -0.97538584 0.19328472 -0.10612932 0.12936817
-0.61309415 -0.28003529 -0.17418893 -0.14572293 0.81920725 0.55467492 0.12936817
-0.8851999 -0.40197837 -0.12193706 -0.19931911 0.51613861 0.83299029 0.12936817
-0.93854177 -0.47656459 -0.098927766 -0.23579629 0.33411071 0.91256237 0.12936817
-0.72289222 -0.74984545 0.049395695 -0.65958488 0.0095691169 0.75156921 0.12936817
-0.63901109 -0.73003381 0.14225282 -0.82329237 0.118743 0.55505836 0.12936817
-1.3417059 -0.78268135 -0.16396791 -0.1159507 -0.12299606 0.98561019 0.12936817
-0.86480582 -0.63967496 -0.040592551 -0.3899731 0.063117012 0.91866058 0.12936817
-0.9097296 -0.58785814 -0.063009605 -0.32173368 0.1278955 0.93815255 0.12936817
-0.97274113 -1.1510383 -0.15847155 -0.31262043 -0.1335633 0.94044101 0.12936817
-1.0298673 -1.2243237 -0.18289983 -0.2412255 -0.066291742 0.96820229 0.12936817
-0.94478428 -1.1682618 -0.1509103 -0.35002214 -0.11940555 0.92909998 0.12936817
-1.0552064 -1.058679 -0.16627394 -0.23083946 -0.17904986 0.9563756 0.12936817
-0.95140707 -1.095436 -0.14199196 -0.34030023 -0.16641857 0.92547315 0.12936817
-1.0080005 -1.0913203 -0.15976162 -0.27422085 -0.16846392 0.94679606 0.12936817
-0.96884853 -1.1904153 -0.16210751 -0.31747362 -0.10135225 0.94283521 0.12936817
-0.87240708 -1.1334562 -0.11365519 -0.46029577 -0.13446186 0.87752366 0.12936817
-0.85877907 -0.61381972 -0.040446982 -0.38319924 0.10745358 0.91739416 0.12936817
-0.86480582 -0.63967496 -0.040592551 -0.3899731 0.063117012 0.91866058 0.12936817
-0.97851139 -0.40105411 -0.14265652 -0.16874541 0.48229584 0.85960209 0.12936817
-0.90227312 -0.39232057 -0.13195446 -0.18464862 0.5289225 0.82833922 0.12936817
-0.51841253 -0.61612898 0.51673234 -0.91916376 0.38928246 -0.059976377 0.12936817
-0.5449549 -0.56393474 0.20745628 -0.80110383 0.44529298 0.39993355 0.12936817
-0.56986392 -0.74801946 0.32775629 -0.96289712 0.21135418 0.16780509 0.12936817
-0.56111914 -0.5369125 0.15247914 -0.72155052 0.47833645 0.50055879 0.12936817
-0.63696945 -0.71651691 0.14217325 -0.81746513 0.13583522 0.55973166 0.12936817
-0.87835413 -0.67795658 -0.045016356 -0.39077601 0.0023543686 0.92048281 0.12936817
-0.89260757 -0.67576712 -0.050920971 -0.37453696 -0.00048932398 0.92721188 0.12936817
-0.87395519 -0.67144197 -0.043195687 -0.39330471 0.012969958 0.91931671 0.12936817
-0.62220693 -0.28301632 -0.17222352 -0.14724039 0.81321847 0.56302392 0.12936817
-0.58527517 -0.55817312 0.13752894 -0.72062027 0.42137986 0.55058646 0.12936817
-0.64675969 -0.9054513 0.14494483 -0.89201778 0.001154974 0.45199889 0.12936817
-0.65980041 -1.1970971 0.13698599 -0.9546839 0.12170754 0.27159876 0.12936817
-1.1957734 -0.96742141 -0.17560333 -0.14398272 -0.18182166 0.9727332 0.12936817
-0.73932582 -0.66926938 0.0311889 -0.58088714 0.096477903 0.80824631 0.12936817
-0.66311491 -0.37688115 -0.072499216 -0.27872339 0.67628676 0.68187207 0.12936817
-0.96872318 -1.1698231 -0.15965138 -0.31760719 -0.11909415 0.9407137 0.12936817
-1.1197169 -0.33232033 -0.21057472 -0.11420748 0.60014588 0.79169542 0.12936817
-0.66453516 -0.69701922 0.1025587 -0.74431229 0.12748063 0.65555155 0.12936817
-1.0208009 -0.37069348 -0.16859394 -0.14066112 0.5355618 0.83269924 0.12936817
-0.66873038 -1.3086822 0.24346316 -0.95385063 0.29895151 0.028229924 0.12936817
-0.69456428 -1.2470974 0.060392272 -0.90017056 0.12303422 0.41779846 0.12936817
-0.89386308 -0.56242675 -0.061749965 -0.32077119 0.1812734 0.92964822 0.12936817
-0.6454255 -0.7151233 0.12995084 -0.79857385 0.12720586 0.58830136 0.12936817
-0.62045896 -0.65963787 0.14779545 -0.79899424 0.22619537 0.55717492 0.12936817
-0.65012127 -0.6100136 0.092509501 -0.68323606 0.27075216 0.67814583 0.12936817
-0.6962378 -0.30366245 -0.16352195 -0.15305883 0.76359838 0.62728816 0.12936817
-0.82742834 -0.44921872 -0.07891947 -0.27464616 0.44690928 0.8513763 0.12936817
-1.250047 -0.93803173 -0.17759483 -0.121696 -0.17447963 0.97711152 0.12936817
-0.67663145 -1.1496103 0.081458092 -0.90320987 0.033859991 0.42786142 0.12936817
-0.88799232 -0.65614361 -0.049353365 -0.37232736 0.028370839 0.92766774 0.12936817
-0.77183092 -1.0814098 -0.037366726 -0.64969695 -0.11994021 0.75067186 0.12936817
-0.84748453 -1.1318228 -0.099522695 -0.50483692 -0.1285498 0.8535893 0.12936817
-1.3417059 -0.78268135 -0.16396791 -0.1159507 -0.12299606 0.98561019 0.12936817
-0.55915141 -0.66969007 0.28503194 -0.92134464 0.2878831 0.26124203 0.12936817
-0.68788129 -0.54594028 0.033719003 -0.53438979 0.35115963 0.76883972 0.12936817
-0.83566558 -0.37464541 -0.12872584 -0.19096638 0.59232354 0.78274173 0.12936817
-0.91406685 -0.64234751 -0.059804086 -0.34151486 0.03804427 0.93910611 0.12936817
-0.81713009 -0.35942155 -0.13632408 -0.18123938 0.62863928 0.75628364 0.12936817
-0.74196571 -0.67501438 0.029942613 -0.58035439 0.08615236 0.80979413 0.12936817
-0.51024979 -0.48370358 0.16773418 -0.68365121 0.60228282 0.41216066 0.12936817
-0.77856791 -0.63864607 0.0020414786 -0.49777704 0.11437869 0.85972995 0.12936817
-0.78987306 -0.6449005 -0.0036278581 -0.48589626 0.09699665 0.86861759 0.12936817
-0.8039012 -0.40835616 -0.096012235 -0.24240215 0.54253423 0.80429959 0.12936817
-1.0099537 -1.1801118 -0.17356439 -0.26667473 -0.10987704 0.95750278 0.12936817
-1.0571487 -0.90564454 -0.13582118 -0.24295668 -0.19203344 0.95083922 0.12936817
-1.1294031 -1.1606354 -0.19674736 -0.15397039 -0.11174066 0.98173678 0.12936817
-0.87947583 -0.65924549 -0.045787193 -0.38254222 0.027558016 0.92352694 0.12936817
-0.60398376 -0.98381561 0.34676367 -0.99062419 0.13152026 0.036960963 0.12936817
-0.60414445 -0.68768936 0.18616977 -0.85955888 0.20994696 0.46591929 0.12936817
-1.0184432 -1.1914036 -0.1771106 -0.25629234 -0.099483848 0.96146619 0.12936817
-0.60072833 -0.5704571 0.12671199 -0.71473253 0.38609493 0.58317077 0.12936817
-0.58882362 -0.7192257 0.23521328 -0.9150753 0.19816521 0.35123748 0.12936817
-0.52001739 -0.56221706 0.26521051 -0.83905852 0.46417645 0.28376219 0.12936817
-0.53670937 -0.59765726 0.26880276 -0.8701281 0.39955768 0.28849733 0.12936817
-1.1200866 -0.35772485 -0.19268838 -0.12465438 0.54435575 0.82954091 0.12936817
-0.79611397 -0.8349613 -0.012723736 -0.55189985 -0.11168931 0.826397 0.12936817
-0.80149257 -1.1620603 -0.07258983 -0.60531062 -0.085980244 0.79133207 0.12936817
-0.81212413 -0.32462162 -0.16658865 -0.14569463 0.69061166 0.70839864 0.12936817
-0.61378956 -1.022193 0.45130274 -0.97852701 0.1808567 -0.098872602 0.12936817
-0.59480494 -0.91225547 0.34338585 -0.98847973 0.13100173 0.075805105 0.12936817
-0.58815432 -0.51130021 0.096657626 -0.62485647 0.50148857 0.5983842 0.12936817
-0.6772455 -0.624529 0.07182537 -0.65079433 0.220403 0.72655988 0.12936817
-0.70333457 -0.35707155 -0.10676308 -0.22489144 0.68544471 0.6925239 0.12936817
-0.87395519 -0.67144197 -0.043195687 -0.39330471 0.012969958 0.91931671 0.12936817
-0.90844011 -0.70288152 -0.057839081 -0.36587778 -0.040013131 0.92980236 0.12936817
-0.82403052 -0.48628962 -0.060164388 -0.31543615 0.37181109 0.87307304 0.12936817
-0.82913607 -0.71250701 -0.022121064 -0.4646138 -0.018596781 0.8853181 0.12936817
-1.2791102 -0.30740252 -0.25436315 -0.12115323 0.65150589 0.74890721 0.12936817
-0.95899636 -0.30488658 -0.21056943 -0.10585567 0.68238789 0.72328508 0.12936817
-1.0246228 -0.33782578 -0.19233859 -0.12088657 0.60408443 0.78769821 0.12936817
-0.61054665 -0.73989272 0.19429447 -0.88922131 0.14747043 0.43305653 0.12936817
-0.61835825 -0.67519987 0.15709388 -0.81928045 0.20790912 0.53437185 0.12936817
-0.69711983 -1.0501153 0.049703866 -0.81847811 -0.061839782 0.57120001 0.12936817
-0.66654897 -1.2293627 0.12940942 -0.95142627 0.15097988 0.26831535 0.12936817
-0.67751503 -0.67380416 0.08410152 -0.69863188 0.14508361 0.70061702 0.12936817
-0.62996227 -1.1324557 0.25063241 -0.98520231 0.1389931 0.10028594 0.12936817
-0.89968485 -0.67872751 -0.053763259 -0.3680802 -0.0070736357 0.92976713 0.12936817
-0.7561565 -0.68336141 0.020792911 -0.56177753 0.063734487 0.82482964 0.12936817
-0.90191948 -0.56257081 -0.064469814 -0.31437257 0.17722428 0.93261003 0.12936817
-0.58407855 -0.57784241 0.15398195 -0.75686461 0.38916892 0.52507478 0.12936817
-0.8199839 -0.96322834 -0.050892834 -0.53140581 -0.16644448 0.83060467 0.12936817
-1.1234607 -0.33419743 -0.20970075 -0.11497419 0.59566516 0.79496163 0.12936817
-0.72960973 -0.40021634 -0.077374898 -0.2740199 0.59923208 0.75221938 0.12936817
-0.87829095 -0.5640521 -0.05592097 -0.33484468 0.18584642 0.92376411 0.12936817
-0.54862607 -0.54460257 0.17971998 -0.75814223 0.47472569 0.44705239 0.12936817
-0.62964338 -0.56778646 0.093089446 -0.65968627 0.36349988 0.65778553 0.12936817
-0.55378479 -0.64603847 0.27657476 -0.90536636 0.32036775 0.27870467 0.12936817
-0.66135561 -1.2111012 0.13820623 -0.95570219 0.13693322 0.26054296 0.12936817
-0.85564363 -0.39167652 -0.12142343 -0.200872 0.55017513 0.81052935 0.12936817
-1.0348265 -0.37249601 -0.16979945 -0.13962409 0.52815783 0.83758843 0.12936817
-0.71929121 -0.69234973 0.049161278 -0.63269967 0.080808736 0.7701695 0.12936817
-0.58587313 -0.66377604 0.20920606 -0.87030196 0.26134741 0.41745898 0.12936817
-0.88819027 -0.6731109 -0.049132284 -0.37833151 0.0047943923 0.92565775 0.12936817
-1.0037885 -1.146068 -0.16740145 -0.27556446 -0.13660495 0.95152682 0.12936817
-0.84982526 -1.0899444 -0.093966536 -0.49434909 -0.15269496 0.85574716 0.12936817
-0.64502138 -1.1625267 0.17923471 -0.97100312 0.11840553 0.20768519 0.12936817
-0.748321 -1.02019 -0.0056843325 -0.68755746 -0.1221616 0.7157802 0.12936817
-0.57959759 -0.72153908 0.26313779 -0.93245506 0.21045484 0.29366022 0.12936817
-0.6506809 -1.1528109 0.15193669 -0.95901519 0.091676086 0.26811442 0.12936817
-0.66877568 -1.3097095 0.25903261 -0.95224297 0.30527627 0.0062993793 0.12936817
-0.75104439 -0.36335394 -0.11550459 -0.21167277 0.65190142 0.72816151 0.12936817
