# .PCD v0.7 - Point Cloud Data file format
VERSION 0.7
FIELDS x y z normal_x normal_y normal_z curvature
SIZE 4 4 4 4 4 4 4
TYPE F F F F F F F
COUNT 1 1 1 1 1 1 1
WIDTH 603
HEIGHT 1
VIEWPOINT 0 0 0 1 0 0 0
POINTS 603
DATA ascii
0.4753105 0.21256803 1.1253369 -0.30879474 0.26176986 1.1020606 0.087504216
0.25036052 0.45506406 1.0172515 -0.23655705 0.25087142 1.179597 0.087504216
0.33928788 0.45114672 1.0362781 -0.24419396 0.26705453 1.1586857 0.087504216
0.79026997 0.11570028 1.2760582 -0.56735599 0.18151405 0.92541599 0.087504216
0.43772995 -0.21957813 1.2339048 -0.26237133 0.36344263 1.059963 0.087504216
0.37468192 -0.39557952 1.2891595 -0.2174774 0.46708059 1.0147566 0.087504216
0.50848711 -0.45749837 1.3452281 -0.20490919 0.47454193 1.0203314 0.087504216
0.55748606 -0.20970383 1.2618673 -0.29551336 0.33502328 1.0526584 0.087504216
0.26539612 -0.12424012 1.1585703 -0.28878695 0.33103374 1.0623945 0.087504216
0.40682879 -0.18422033 1.2143114 -0.26622435 0.35248333 1.0655892 0.087504216
0.30694658 -0.6610651 1.4357435 -0.10495438 0.70360488 0.92110479 0.087504216
0.27891999 0.15498143 1.0885175 -0.28306961 0.25916842 1.1285902 0.087504216
0.37887329 0.29991525 1.0798632 -0.27446514 0.26026666 1.1357988 0.087504216
0.1889829 0.31925872 1.0315776 -0.27467188 0.22950794 1.1616212 0.087504216
0.30017298 0.23761538 1.0750966 -0.27371949 0.25396836 1.1418315 0.087504216
-0.1939477 -0.23444913 0.95542771 -0.784509 0.17786039 0.72313726 0.087504216
0.6047762 0.14394684 1.1827327 -0.37899897 0.24736808 1.047848 0.087504216
0.43939221 -0.47379979 1.3397584 -0.18905225 0.50575233 1.0089279 0.087504216
0.73367083 -0.013666002 1.2727675 -0.46645424 0.22302687 0.98572797 0.087504216
0.56937295 -0.28322974 1.2895583 -0.28124696 0.36178112 1.043517 0.087504216
-0.18564188 -0.47874174 1.0685928 -0.74577618 0.38521835 0.58437043 0.087504216
0.25120124 -0.37660831 1.2517192 -0.25136921 0.46610281 0.98353088 0.087504216
0.35925272 -0.64204413 1.4277477 -0.10923117 0.66855168 0.94671047 0.087504216
-0.33721292 -0.45574754 0.67815042 -1.4678879 -0.044431068 0.26487121 0.087504216
0.21505079 0.08461608 1.0882418 -0.30176964 0.26147482 1.1089541 0.087504216
0.018302156 0.30622172 0.98816878 -0.35482821 0.17013322 1.1360378 0.087504216
0.41701627 -0.013201962 1.1659485 -0.28678933 0.29614568 1.0937945 0.087504216
-0.16459289 -0.22602807 0.98292714 -0.71837801 0.20521829 0.76253843 0.087504216
0.090561822 0.37612367 0.99722213 -0.29384306 0.19852766 1.1696956 0.087504216
0.058579575 0.3880733 0.98706502 -0.30547184 0.18624164 1.1690902 0.087504216
0.075485207 0.037176281 1.0562689 -0.37610891 0.23696493 1.0593809 0.087504216
0.038798228 -0.01231928 1.0537127 -0.41118222 0.23853561 1.0248823 0.087504216
-0.18861969 -0.087226279 0.93303651 -0.73413408 0.11549483 0.82353175 0.087504216
0.37163675 0.1227415 1.1194357 -0.28442085 0.27081114 1.1174641 0.087504216
0.33419281 0.1458057 1.104471 -0.2813116 0.26589903 1.1245596 0.087504216
-0.13112456 0.27716327 0.93448251 -0.50150704 0.087403841 1.0672966 0.087504216
0.10741246 -0.024443194 1.0821396 -0.36099103 0.26629567 1.0488684 0.087504216
0.21785271 0.1052156 1.0841887 -0.29920825 0.25782204 1.1144662 0.087504216
0.25583804 0.16597635 1.0802146 -0.28511372 0.25443006 1.1306651 0.087504216
0.25070465 0.26812866 1.0566719 -0.27295282 0.24467288 1.1504194 0.087504216
0.16446908 0.32543993 1.0245285 -0.27979994 0.22277302 1.1624683 0.087504216
0.1057514 0.23330781 1.0264848 -0.32300952 0.21001765 1.1323928 0.087504216
-0.23652536 -0.17714798 0.89516687 -0.8753103 0.094065152 0.70814312 0.087504216
-0.17836209 -0.11707959 0.94676828 -0.72290832 0.13774335 0.81532896 0.087504216
-0.014934458 0.30598488 0.97743362 -0.37887898 0.15436669 1.1266285 0.087504216
-0.017127518 0.26335463 0.98258871 -0.39456284 0.15617903 1.1102628 0.087504216
-0.11455826 -0.024006961 0.97881633 -0.58819574 0.15761049 0.92592639 0.087504216
0.30761877 -0.27433601 1.2220496 -0.25857508 0.40192246 1.0310042 0.087504216
0.31684852 -0.17264158 1.1877824 -0.27291861 0.3525753 1.0591804 0.087504216
0.58955956 -0.26827836 1.290031 -0.29430491 0.34911215 1.0418839 0.087504216
0.39419472 0.39157385 1.0623375 -0.26698232 0.26640877 1.1376802 0.087504216
0.16349354 0.4589597 0.99888003 -0.24621964 0.22782524 1.1899529 0.087504216
0.5057593 0.15159537 1.1486838 -0.32128349 0.26276386 1.0894088 0.087504216
0.90425164 0.31257766 1.3369623 -0.83439738 0.10446429 0.73803961 0.087504216
-0.22944832 -0.03445702 0.88940841 -0.79902846 0.052999739 0.81502151 0.087504216
0.11809332 0.045857873 1.0687144 -0.34776193 0.24815771 1.076722 0.087504216
0.49952164 0.02098085 1.1793814 -0.31071651 0.28098187 1.0839922 0.087504216
0.11602341 0.2975595 1.0175431 -0.30359837 0.20871252 1.1518546 0.087504216
-0.30507028 -0.48621368 0.82447833 -1.2259349 0.13236466 0.3441487 0.087504216
-0.24203998 0.067363091 0.87357002 -0.77489263 0.015560863 0.86951607 0.087504216
-0.11354253 -0.026434794 0.9798767 -0.58734679 0.15918399 0.92539835 0.087504216
0.12934032 0.25409934 1.029132 -0.3078008 0.21572743 1.1419466 0.087504216
-0.20393227 0.07759773 0.90462792 -0.69671661 0.053840403 0.91107035 0.087504216
0.4149451 -0.17202447 1.2123494 -0.26869106 0.3467595 1.0680979 0.087504216
0.27448678 0.10925019 1.0980633 -0.28694114 0.26568085 1.1194202 0.087504216
0.30348468 0.20110308 1.0840874 -0.27739438 0.25704679 1.1357521 0.087504216
-0.32286501 -0.060568389 0.77309871 -1.0663124 -0.082055219 0.67648047 0.087504216
-0.15813318 -0.14926282 0.97041374 -0.69173449 0.1716914 0.81609553 0.087504216
0.20965113 0.40361884 1.0194592 -0.25212646 0.23666735 1.1768873 0.087504216
-0.25593039 0.27073881 0.86336476 -0.68297291 -0.01745558 0.98437536 0.087504216
0.066772275 0.14821555 1.0304277 -0.36318284 0.20821285 1.095926 0.087504216
0.17735131 0.45627674 1.0022548 -0.24411526 0.23179102 1.1885885 0.087504216
-0.072408997 -0.11948469 1.0248072 -0.54756683 0.22448581 0.90778279 0.087504216
0.13022384 0.061306167 1.0690265 -0.33926424 0.24759455 1.085235 0.087504216
0.44694915 -0.090890504 1.1956413 -0.28424382 0.31501219 1.0802432 0.087504216
-0.24213521 -0.18298937 0.88886642 -0.89252031 0.088541113 0.69653958 0.087504216
-0.25511566 0.14917414 0.86211079 -0.75489646 -0.01010032 0.91013312 0.087504216
-0.055849176 -0.21907277 1.0634351 -0.53251851 0.28641206 0.86963308 0.087504216
-0.2176024 -0.13509263 0.91131306 -0.81323928 0.10138453 0.76065457 0.087504216
0.09673328 0.13031128 1.0436461 -0.3480238 0.2221161 1.0985022 0.087504216
-0.23045577 -0.21504875 0.90855938 -0.8716377 0.12019989 0.68950981 0.087504216
0.11870384 0.16237286 1.043926 -0.33051506 0.22347195 1.113914 0.087504216
0.29161292 0.10818012 1.1026919 -0.28494069 0.26780853 1.1195123 0.087504216
0.18234649 -0.10516305 1.1288452 -0.32086191 0.31357807 1.0468253 0.087504216
-0.17009902 0.30540401 0.91355079 -0.53617018 0.057509053 1.0598016 0.087504216
0.044924546 -0.39914879 1.1943777 -0.38574752 0.45890892 0.8625297 0.087504216
0.1438688 0.37281656 1.0107199 -0.27466169 0.21674812 1.172424 0.087504216
-0.29459071 0.23406403 0.83241379 -0.77884948 -0.059475988 0.92924529 0.087504216
0.21777506 -0.012043606 1.1131002 -0.30597842 0.28664634 1.0836818 0.087504216
0.45821688 0.04248324 1.1622795 -0.29905307 0.28136984 1.0946946 0.087504216
-0.040822823 -0.19889256 1.0658141 -0.51187038 0.28351742 0.89160919 0.087504216
0.33463612 -0.089975141 1.1664064 -0.27884847 0.32078597 1.0804619 0.087504216
0.27035829 -0.21059828 1.1886402 -0.27864265 0.36934483 1.0395821 0.087504216
-0.33665863 -0.3275823 0.70320475 -1.3483329 -0.072630331 0.40179148 0.087504216
-0.037305173 0.22670414 0.98017615 -0.4235689 0.14945348 1.0885197 0.087504216
0.070570037 0.31695661 1.0018665 -0.32027093 0.19157639 1.1505817 0.087504216
0.018350618 -0.15716489 1.0833589 -0.44216043 0.29018077 0.95190001 0.087504216
0.23203871 0.25073904 1.0558788 -0.27827376 0.24202438 1.1476275 0.087504216
-0.30054614 -0.15002115 0.80202836 -1.0546813 -0.02184061 0.63654679 0.087504216
-0.36327806 -0.21383186 0.65153587 -1.3865975 -0.17744479 0.45426267 0.087504216
-0.35715353 -0.26054794 0.65319818 -1.4064702 -0.15745255 0.41855761 0.087504216
0.16451761 -0.054892994 1.1088929 -0.32955557 0.29111832 1.0576013 0.087504216
-0.19807397 0.072636679 0.90938765 -0.68857348 0.060506586 0.91313291 0.087504216
0.10788503 -0.028692663 1.0833851 -0.36099958 0.26787797 1.0475219 0.087504216
0.26413354 0.34217301 1.0440712 -0.25962365 0.24631259 1.1616383 0.087504216
0.47065508 0.13792492 1.1419313 -0.30678877 0.26698607 1.0995455 0.087504216
-0.089138173 0.34974706 0.9456647 -0.42622992 0.11193292 1.1177405 0.087504216
0.25770968 0.045982577 1.1090959 -0.29307988 0.27661815 1.104363 0.087504216
-0.079301931 -0.090928398 1.0138937 -0.55263716 0.20753133 0.91732889 0.087504216
0.08476615 0.22765765 1.0214063 -0.33520991 0.20333372 1.1265082 0.087504216
0.11723208 0.23984468 1.0284997 -0.31614551 0.21314536 1.1362387 0.087504216
0.32323116 0.12255681 1.107249 -0.28239712 0.26833731 1.1214706 0.087504216
0.23532662 -0.64826161 1.4164257 -0.13340868 0.70768201 0.89074582 0.087504216
0.38456246 0.34522599 1.0708214 -0.27059829 0.2622174 1.1378058 0.087504216
-1.0941795 -0.97506809 2.5196326 -0.034237392 2.3390768 -0.39541173 0.087504216
-0.80246854 -1.0235686 2.0388608 -0.38093567 1.8137171 -0.27891085 0.087504216
-0.32743484 -0.37274086 0.72909689 -1.326324 -0.024268666 0.38169849 0.087504216
0.43463987 -0.014710393 1.1710037 -0.28963706 0.2953524 1.0917722 0.087504216
0.31008953 -0.16906208 1.1848465 -0.27450424 0.35105595 1.0589659 0.087504216
0.0089044971 -0.46684498 1.2165965 -0.40204963 0.50869018 0.8050037 0.087504216
0.36787131 -0.4223913 1.3003613 -0.20932384 0.4859741 1.0064862 0.087504216
0.24917702 -0.17198659 1.16954 -0.28973526 0.35018933 1.0452945 0.087504216
-0.35453686 -0.13006772 0.70108742 -1.2490547 -0.1481276 0.55954331 0.087504216
-0.31906745 -0.20938252 0.76410365 -1.1649923 -0.047057517 0.55355191 0.087504216
-0.35270587 -0.15792957 0.69790041 -1.2691493 -0.14259492 0.53585911 0.087504216
0.30920559 -0.035846092 1.1442566 -0.28451106 0.30286473 1.0902656 0.087504216
-0.20657951 0.15543362 0.89886957 -0.66377759 0.038680516 0.95504522 0.087504216
0.079178631 0.42093447 0.98690367 -0.28533393 0.19561429 1.1802074 0.087504216
0.34142938 -0.22188082 1.2109699 -0.26232579 0.3739993 1.0510764 0.087504216
0.11593793 -0.21632309 1.1431646 -0.35538715 0.35282463 0.98097605 0.087504216
0.49839485 -0.15700708 1.2291465 -0.28613612 0.32907248 1.0665604 0.087504216
-0.25257239 0.046165466 0.8641206 -0.80873799 0.0069403541 0.84479916 0.087504216
-0.24709855 -0.4403877 0.95104367 -0.95053041 0.24801166 0.50678611 0.087504216
0.12434172 0.31107408 1.0172504 -0.29692897 0.21090762 1.1563053 0.087504216
-0.2109139 0.29239166 0.89190584 -0.59891903 0.024423975 1.0284435 0.087504216
-0.14639726 0.32766014 0.92359531 -0.49649411 0.074520469 1.0829352 0.087504216
0.38724995 -0.75571615 1.5174083 -0.031699646 0.77668852 0.92856514 0.087504216
0.3608692 0.082611769 1.1265396 -0.28414193 0.27681291 1.1126512 0.087504216
-0.15499328 0.24178652 0.92529148 -0.54668766 0.072685957 1.0370172 0.087504216
0.055994131 -0.027681794 1.0641625 -0.3987076 0.25042325 1.0266246 0.087504216
-0.18812528 0.014488445 0.92168576 -0.69562572 0.083704956 0.88684052 0.087504216
0.41882735 0.08728727 1.1403669 -0.29151106 0.27596965 1.1063952 0.087504216
0.49314466 -0.63974148 1.4414331 -0.1167204 0.61707574 0.98316962 0.087504216
0.11811859 0.17721377 1.0407983 -0.32814607 0.22099927 1.118246 0.087504216
-0.14589335 0.36503762 0.92126971 -0.47818527 0.074625686 1.1001616 0.087504216
0.54210401 -0.67981619 1.4723604 -0.1052171 0.62984604 0.98324668 0.087504216
-0.20350558 0.077300176 0.90497172 -0.69609118 0.054315455 0.91126001 0.087504216
0.024763843 0.19968724 1.00704 -0.38055032 0.18296762 1.1008552 0.087504216
0.013447956 0.32540128 0.98382181 -0.35205922 0.16711967 1.1412055 0.087504216
0.18399334 0.057631429 1.0859672 -0.31472 0.26155853 1.0966356 0.087504216
0.05185502 0.24230817 1.008816 -0.35106653 0.18925801 1.1234182 0.087504216
-0.19992986 0.075381652 0.90780777 -0.69061041 0.058164991 0.91318721 0.087504216
-0.30751935 -0.097921334 0.79358029 -1.0432647 -0.047017958 0.66864055 0.087504216
-0.02894181 0.074144229 1.0073154 -0.4585028 0.18177225 1.028144 0.087504216
-0.22867469 -0.53620553 1.0461947 -0.84804302 0.39014843 0.48348287 0.087504216
-0.30573735 -0.09981963 0.79622424 -1.0387603 -0.043319341 0.66977209 0.087504216
0.23460816 0.054581318 1.1007776 -0.29823613 0.27141333 1.1038891 0.087504216
-0.31447554 0.0053438647 0.79254538 -0.99027753 -0.074689038 0.74215859 0.087504216
-0.30026522 -0.54495519 0.87270027 -1.1834737 0.21300682 0.31609294 0.087504216
-0.067674533 -0.2126608 1.0539753 -0.54910731 0.27543998 0.86322534 0.087504216
-0.033013981 -0.51254612 1.2248921 -0.43449697 0.54031104 0.74757004 0.087504216
-0.35303637 -0.25751892 0.66772896 -1.3775432 -0.14168048 0.43257368 0.087504216
0.10094205 0.23320971 1.0251255 -0.32542795 0.20840518 1.1314695 0.087504216
-0.26478419 -0.19690014 0.85928482 -0.96368903 0.058854274 0.65434402 0.087504216
-0.35366592 -0.25524226 0.66647631 -1.3787537 -0.14403011 0.43341643 0.087504216
-0.29560503 -0.56622946 0.90568674 -1.1415457 0.2590324 0.31681412 0.087504216
-0.10722467 -0.16146921 1.0126789 -0.60500139 0.22050333 0.85683358 0.087504216
-0.21642974 0.17810808 0.89124388 -0.66866374 0.026730852 0.96053213 0.087504216
-0.3322542 -0.35415912 0.71413141 -1.3431265 -0.049107719 0.38681832 0.087504216
-0.2956534 -0.18432261 0.80961603 -1.0587896 -0.0023769801 0.61619771 0.087504216
-0.26174346 -0.11819133 0.85810566 -0.91805083 0.035131406 0.71757215 0.087504216
-0.30832472 -0.26238456 0.78460699 -1.1548557 -0.0047359122 0.52733988 0.087504216
-0.084627636 0.22657405 0.96060956 -0.46997744 0.12233395 1.067569 0.087504216
-0.098206341 0.26297331 0.95070702 -0.47057486 0.11033673 1.0771521 0.087504216
-0.070838727 0.21990775 0.96738321 -0.45803952 0.13142416 1.07117 0.087504216
-0.33368358 -0.24947214 0.72520608 -1.2634225 -0.077899829 0.48655161 0.087504216
-0.34536111 -0.3437556 0.66776448 -1.4227935 -0.10646757 0.35999337 0.087504216
0.36778903 0.052208737 1.1359726 -0.2844426 0.28267351 1.1074095 0.087504216
-0.15236133 0.078902259 0.94063663 -0.61122262 0.099489003 0.95331228 0.087504216
-0.33204451 0.0026040846 0.76768446 -1.045337 -0.10505372 0.7157715 0.087504216
-0.13307521 0.06715674 0.95403773 -0.58704573 0.11736514 0.96105635 0.087504216
-0.25366765 -0.115611 0.86807507 -0.89504266 0.046176694 0.72998887 0.087504216
-0.34309271 -0.28320572 0.69179368 -1.3454798 -0.10364539 0.43072447 0.087504216
-0.080494843 0.25095236 0.95961607 -0.45668322 0.12236214 1.0801181 0.087504216
-0.30707929 -0.26681158 0.78731489 -1.1521516 -3.4973396e-05 0.52592093 0.087504216
-0.32815239 -0.14481772 0.75301862 -1.1521271 -0.081378855 0.59475034 0.087504216
-0.32132527 -0.089431196 0.77217472 -1.0834279 -0.075147308 0.65445065 0.087504216
-0.32467797 -0.26176208 0.74650043 -1.22899 -0.04871919 0.49443272 0.087504216
-0.15835224 0.26796263 0.92177445 -0.53901994 0.068221763 1.0480449 0.087504216
-0.028562326 0.063045532 1.0094686 -0.46072081 0.1848323 1.0234579 0.087504216
-0.20974414 0.082360886 0.8998875 -0.70495266 0.047196168 0.90890145 0.087504216
0.056332309 0.1343697 1.0295398 -0.3730225 0.20682958 1.0877905 0.087504216
0.053153768 0.012342187 1.0536557 -0.39614064 0.23618421 1.0410966 0.087504216
-0.11421689 -0.19813702 1.0174822 -0.62082303 0.23444144 0.83008063 0.087504216
-0.33137769 -0.32133007 0.72122079 -1.3110515 -0.054581065 0.42178261 0.087504216
-0.34679303 -0.3400569 0.66321969 -1.4291325 -0.11325756 0.35974184 0.087504216
-0.09720856 0.22892348 0.95472223 -0.48268589 0.11418329 1.0624446 0.087504216
-0.053406116 0.11040347 0.99021852 -0.47450334 0.15988277 1.0315273 0.087504216
0.33317551 -0.95718968 1.7274789 0.16387731 1.0710647 0.86452526 0.087504216
0.73350149 -0.81485206 1.5801321 -0.11187975 0.63468546 0.97285205 0.087504216
2.7017784 -5.4953561 10.568722 -3.7999904 -1.9716781 -0.31048083 0.087504216
0.25210896 -0.17293359 1.1706686 -0.28867677 0.35081467 1.0457666 0.087504216
0.32369742 -0.24365598 1.214434 -0.26117027 0.38536182 1.0425581 0.087504216
-0.23114379 0.0060759466 0.88550085 -0.78354722 0.040572427 0.84017456 0.087504216
0.15660742 0.21050036 1.0449769 -0.30541819 0.22786379 1.133934 0.087504216
0.52199429 -0.47680244 1.3569802 -0.20039199 0.48262635 1.0177652 0.087504216
0.32941422 -0.1801053 1.1934981 -0.27009162 0.35560802 1.0592886 0.087504216
0.19707556 -0.12827425 1.1403762 -0.31325486 0.3254618 1.0439674 0.087504216
0.10860617 0.058476429 1.0627638 -0.35181099 0.24202804 1.0780776 0.087504216
-0.2262045 -0.14551882 0.9032315 -0.83757162 0.094745651 0.7432583 0.087504216
-0.074798614 0.22197364 0.96543199 -0.46136838 0.1288255 1.0702199 0.087504216
-0.2256097 0.29059094 0.88316977 -0.62198436 0.011363348 1.0176774 0.087504216
0.076218724 -0.54285997 1.2970686 -0.29573378 0.60157657 0.82698059 0.087504216
0.29668891 -0.12227447 1.1663288 -0.28164259 0.33182082 1.0684854 0.087504216
-0.21558203 0.2926068 0.88916337 -0.60569829 0.020322183 1.0255016 0.087504216
-0.018910458 -0.050464418 1.037184 -0.47216976 0.22612336 0.97770333 0.087504216
0.18232967 -0.01359873 1.1032457 -0.31982392 0.28094095 1.0754137 0.087504216
-0.097354673 0.070710607 0.97416443 -0.53745866 0.14199577 0.9871183 0.087504216
-0.27732742 -0.26828906 0.84624654 -1.0355873 0.06737791 0.57913738 0.087504216
-0.34839785 -0.13436562 0.71350604 -1.2263528 -0.13183972 0.56723589 0.087504216
0.21649969 -0.58322489 1.3641304 -0.18109193 0.64221138 0.90102971 0.087504216
-0.16137458 0.27512169 0.91976422 -0.53955001 0.065503106 1.0498432 0.087504216
-0.33460531 -0.26987845 0.71941447 -1.2857273 -0.076904066 0.46461496 0.087504216
0.2973116 -0.029532684 1.1393974 -0.2863431 0.30035302 1.0906576 0.087504216
0.19141415 -0.11051977 1.1332171 -0.31646794 0.31724238 1.0478812 0.087504216
0.056854233 0.050756894 1.0465734 -0.38769352 0.22643895 1.0573286 0.087504216
0.22490847 -0.019209236 1.1170141 -0.30372933 0.28987902 1.0830745 0.087504216
0.45760286 -0.57804507 1.3993222 -0.14420888 0.57896066 0.9894132 0.087504216
-0.22225916 -0.15131816 0.90842289 -0.83002275 0.10220809 0.74408531 0.087504216
-0.17068952 -0.22170918 0.97597861 -0.73053193 0.1965054 0.75841403 0.087504216
-0.29775777 -0.11373227 0.80777979 -1.0222386 -0.025623579 0.67042881 0.087504216
-0.2921873 -0.10028105 0.81648952 -0.99631512 -0.018966071 0.68931425 0.087504216
0.053894177 0.19550084 1.0175343 -0.36128345 0.19568597 1.1083186 0.087504216
-0.33051413 -0.091014624 0.75632834 -1.117142 -0.093806073 0.63834888 0.087504216
-0.3152577 -0.25549641 0.76933503 -1.1808513 -0.024744257 0.51967943 0.087504216
-0.40510046 -0.0042536217 0.63356376 -1.3279676 -0.27083886 0.58871025 0.087504216
-0.075783662 0.092441604 0.98222691 -0.50461608 0.15064996 1.0108584 0.087504216
-0.32298306 -0.29241151 0.74817586 -1.243245 -0.035192586 0.46950945 0.087504216
-0.21381471 0.12849776 0.89474154 -0.68962628 0.035483178 0.93330377 0.087504216
-0.32880959 -0.062228408 0.76334387 -1.0876529 -0.093481652 0.66596335 0.087504216
0.2804572 -0.13504478 1.1660236 -0.28410882 0.33620825 1.0624418 0.087504216
0.33395988 0.086087443 1.1188247 -0.28346691 0.27508083 1.1147547 0.087504216
0.014328649 0.20793658 1.0020555 -0.38618955 0.17720775 1.1003941 0.087504216
-0.031150047 0.27313712 0.97620827 -0.40294918 0.14821024 1.1090721 0.087504216
0.43298179 -0.26661655 1.2494273 -0.25196528 0.38554499 1.0511086 0.087504216
-0.22189079 0.10447999 0.88945466 -0.71628791 0.031094763 0.91180098 0.087504216
0.081926018 0.087182909 1.0476773 -0.36435145 0.22630134 1.0795203 0.087504216
-0.33740357 -0.24996565 0.71529853 -1.2828121 -0.089209281 0.47778043 0.087504216
-0.38213784 -0.12231507 0.63619256 -1.3736467 -0.22893296 0.51006305 0.087504216
-0.33153948 -0.22460562 0.73437834 -1.2320528 -0.07632485 0.51488686 0.087504216
-0.20664893 0.0041482821 0.90744746 -0.73471135 0.067883156 0.86325902 0.087504216
-0.31028706 -0.26113364 0.78030151 -1.1625925 -0.010117814 0.52457535 0.087504216
-0.1486304 0.1180089 0.93903559 -0.59055001 0.094398111 0.97716939 0.087504216
0.009706215 -0.20691089 1.0952206 -0.45156568 0.31284729 0.92383224 0.087504216
0.23678066 -0.20546578 1.1776024 -0.29053178 0.36511779 1.0319136 0.087504216
-0.35605842 0.018493691 0.73387575 -1.1096892 -0.15139638 0.69411111 0.087504216
-0.24554686 0.067768082 0.87041855 -0.78191501 0.011476095 0.86632991 0.087504216
-0.32425079 -0.28702062 0.74525768 -1.2457513 -0.040606722 0.47171885 0.087504216
-0.24947597 -0.21579912 0.88340819 -0.925246 0.09210097 0.66257858 0.087504216
-0.34188184 -0.18622166 0.7167207 -1.2463748 -0.11055545 0.53029656 0.087504216
-0.21554692 -0.16109134 0.91726911 -0.81714809 0.1148598 0.74555957 0.087504216
-0.31738749 -0.25014094 0.7647779 -1.1867123 -0.031926367 0.5202117 0.087504216
-0.23841071 -0.15908632 0.89060378 -0.87352729 0.083843775 0.71847534 0.087504216
-0.25693163 -0.032259203 0.86081755 -0.86140895 0.017869988 0.78574133 0.087504216
-0.36612207 -0.29991308 0.60035038 -1.5237591 -0.20303568 0.34619063 0.087504216
0.091280915 -0.27350077 1.1556435 -0.36843786 0.38035461 0.94534671 0.087504216
-0.24744505 -0.0957826 0.87421829 -0.86969888 0.048453856 0.75203121 0.087504216
0.042876501 -0.007336555 1.0541803 -0.40709487 0.238498 1.0287796 0.087504216
-0.33569843 -0.044853758 0.75471175 -1.096867 -0.10880271 0.67020893 0.087504216
-0.38176891 -0.17219277 0.61310035 -1.4406211 -0.238739 0.45501757 0.087504216
-0.18174516 -0.34476921 1.0040386 -0.76370323 0.2656768 0.66853273 0.087504216
-0.35510173 -0.22437571 0.67220056 -1.3522859 -0.14914191 0.46277186 0.087504216
-0.36335042 -0.18141511 0.66345042 -1.3480277 -0.17531127 0.48893487 0.087504216
-0.36525849 -0.26472449 0.622666 -1.4656254 -0.19149622 0.39140895 0.087504216
-0.34014317 -0.32102069 0.69271451 -1.3642546 -0.087350123 0.39918485 0.087504216
-0.36347064 -0.27391952 0.62495404 -1.4658414 -0.18508974 0.38578555 0.087504216
-0.31249085 -0.25686252 0.77551115 -1.1695124 -0.017156513 0.52398485 0.087504216
-0.26428881 -0.19017525 0.85941696 -0.95922142 0.056965116 0.66016722 0.087504216
-0.30630022 -0.14015733 0.79287201 -1.0680519 -0.035606842 0.63554609 0.087504216
-0.32466984 -0.052523371 0.77126181 -1.0659876 -0.086467326 0.68051982 0.087504216
-0.35494387 -0.26877794 0.6576159 -1.4023198 -0.14903796 0.4153651 0.087504216
-0.13772227 0.071928412 0.95061451 -0.59208292 0.11266668 0.96026683 0.087504216
0.008624427 0.0045122765 1.0374216 -0.43578085 0.22011702 1.0171982 0.087504216
-0.25716594 -0.19673637 0.87025911 -0.94061679 0.071353719 0.66559136 0.087504216
-0.36656469 -0.22949968 0.63451582 -1.4264622 -0.1915236 0.4284701 0.087504216
-0.36360991 -0.16129839 0.66981244 -1.3259794 -0.17490952 0.50944692 0.087504216
-0.26477817 -0.19092585 0.85876912 -0.96104366 0.056448318 0.65888095 0.087504216
-0.12641428 -0.022647727 0.97091353 -0.60557061 0.1482054 0.91744989 0.087504216
-0.019859148 0.067346655 1.0125514 -0.45100406 0.18819802 1.0298004 0.087504216
-0.27360713 -0.20674707 0.84667319 -0.99600273 0.047463417 0.63341898 0.087504216
-0.049735416 -0.22952799 1.0706532 -0.52416062 0.29619452 0.8692627 0.087504216
-0.14238979 -0.31292915 1.031922 -0.67741466 0.28320041 0.73531622 0.087504216
0.35857257 -0.7083537 1.4773171 -0.066538446 0.73661196 0.92951638 0.087504216
-0.18792203 0.059914492 0.91789925 -0.67642057 0.072825238 0.91420639 0.087504216
-0.11015971 -0.030516971 0.98272681 -0.58346266 0.16306168 0.92579168 0.087504216
-0.33758852 -0.2662009 0.71174043 -1.298413 -0.087183312 0.46131241 0.087504216
0.30159178 -0.65420133 1.4298941 -0.11046534 0.69793373 0.92068994 0.087504216
-0.36932772 -0.19691433 0.64000529 -1.4005396 -0.19744655 0.45799607 0.087504216
-0.02979297 0.028641578 1.0153161 -0.46961364 0.19381183 1.0074521 0.087504216
-0.15340844 -0.16081664 0.97690928 -0.68520492 0.18161075 0.81388032 0.087504216
-0.29521158 -0.33990011 0.8186065 -1.1364505 0.062905557 0.48753053 0.087504216
-0.27190533 -0.209244 0.84953678 -0.991629 0.051528212 0.63411707 0.087504216
-0.26538524 -0.19225328 0.85799462 -0.96348816 0.055961616 0.65698081 0.087504216
-0.34398389 -0.0055702617 0.74821377 -1.0909455 -0.12726572 0.69142634 0.087504216
-0.29986492 -0.22056429 0.80196816 -1.0955715 0.00059287966 0.57889968 0.087504216
0.10397759 0.023141295 1.0693448 -0.35879862 0.25030279 1.0644698 0.087504216
-0.36568713 -0.16373843 0.66348028 -1.3395005 -0.18160419 0.50232232 0.087504216
-0.34503955 -0.20632187 0.70457083 -1.2805797 -0.11775391 0.50403684 0.087504216
-0.056774776 -0.22321661 1.0642382 -0.53386563 0.28829813 0.86676365 0.087504216
-0.26609311 0.032830268 0.85068285 -0.84675604 -0.0076356302 0.82117349 0.087504216
-0.098524004 -0.15572892 1.0172311 -0.59054857 0.22403514 0.86751461 0.087504216
-0.031316113 -0.19376543 1.0695487 -0.49958798 0.28583542 0.90126437 0.087504216
-0.2796841 -0.2002853 0.83658677 -1.0128652 0.033849556 0.62898713 0.087504216
-0.097829446 -0.10222398 1.0048554 -0.58110386 0.19974129 0.89699626 0.087504216
-0.26095989 -0.15492155 0.86132109 -0.93344897 0.048882417 0.691378 0.087504216
0.099957347 -0.053290848 1.0870121 -0.3679516 0.27428579 1.035527 0.087504216
0.12144297 -0.14438994 1.1209377 -0.355176 0.31790781 1.0107108 0.087504216
-0.29988819 -0.14803185 0.80318129 -1.0511689 -0.021082742 0.63922745 0.087504216
-0.087419607 -0.0083005903 0.99243563 -0.5463354 0.17131828 0.95392019 0.087504216
-0.21889524 -0.14114001 0.91073376 -0.81840724 0.10224019 0.75504333 0.087504216
-0.087680742 -0.2267527 1.0452307 -0.57965916 0.27045971 0.83854407 0.087504216
-0.073928952 -0.19923981 1.0457826 -0.55759126 0.26382697 0.86502486 0.087504216
-0.29448643 -0.16113158 0.81174701 -1.0409493 -0.0070749447 0.63704371 0.087504216
-0.047687437 -0.18200718 1.0566125 -0.52020049 0.2704204 0.89480948 0.087504216
-0.38187566 -0.013208593 0.67918998 -1.2386531 -0.21115296 0.62269169 0.087504216
-0.37129509 -0.17772049 0.64234215 -1.3870419 -0.20177253 0.47442052 0.087504216
0.037209861 -0.12687913 1.082809 -0.4226056 0.28331724 0.97619939 0.087504216
-0.039159242 -0.19853173 1.0666516 -0.50970221 0.28423554 0.89305222 0.087504216
-0.17709869 -0.2006042 0.96459377 -0.74049622 0.1782694 0.76441574 0.087504216
-0.35705569 -0.26605356 0.65144515 -1.4125243 -0.1573166 0.41271701 0.087504216
-0.31775194 -0.28924248 0.76184815 -1.2150666 -0.020778343 0.48396626 0.087504216
-0.27280053 -0.18535306 0.84645039 -0.98332036 0.040591549 0.65122586 0.087504216
-0.34436715 -0.28136975 0.6882509 -1.3511902 -0.10846951 0.42940453 0.087504216
-0.34217095 -0.28812233 0.69351733 -1.3448628 -0.099707432 0.42797703 0.087504216
-0.17348185 -0.19748127 0.96733451 -0.73225319 0.18042871 0.77038497 0.087504216
-0.36764741 -0.24880554 0.62169522 -1.4597872 -0.19902241 0.40329647 0.087504216
-0.27118605 -0.1703424 0.84795326 -0.97103953 0.03783549 0.66517156 0.087504216
-0.30692235 -0.19961122 0.78896385 -1.109624 -0.021438112 0.58424503 0.087504216
-0.3483853 -0.20036043 0.69748026 -1.2913318 -0.12823495 0.50273371 0.087504216
-0.3387481 -0.18777506 0.72370476 -1.2334073 -0.10178832 0.53514469 0.087504216
-0.34734917 -0.27550888 0.68037182 -1.3629646 -0.11991357 0.42794928 0.087504216
-0.33024788 -0.20845321 0.73973823 -1.2127677 -0.075792424 0.53267503 0.087504216
-0.26836228 -0.16472423 0.85169691 -0.95976394 0.040527511 0.67355818 0.087504216
-0.34234563 -0.28857115 0.69286251 -1.3463391 -0.10028561 0.42706993 0.087504216
-0.31405625 -0.15301751 0.77849668 -1.1047089 -0.048645891 0.61190766 0.087504216
-0.35691237 -0.17602928 0.68237156 -1.3086053 -0.15476657 0.50883985 0.087504216
-0.33396071 -0.20098902 0.73238605 -1.2232586 -0.087002747 0.53223592 0.087504216
-0.29487115 -0.33212093 0.81842202 -1.1317724 0.059661299 0.494699 0.087504216
-0.34117851 -0.28739399 0.69678259 -1.3383067 -0.096225165 0.43123183 0.087504216
-0.27567887 -0.24366997 0.84647739 -1.0194652 0.059234075 0.60127318 0.087504216
-0.29285118 -0.22643802 0.81511134 -1.072536 0.017679444 0.58623213 0.087504216
-0.3315075 -0.18278566 0.74070859 -1.1970556 -0.083482817 0.5540396 0.087504216
-0.32656166 -0.20859547 0.74800003 -1.1965221 -0.066095501 0.53983682 0.087504216
-0.26987526 -0.30528593 0.8651396 -1.021787 0.10168077 0.563173 0.087504216
-0.33231694 -0.24056169 0.73008186 -1.249113 -0.075534694 0.4980841 0.087504216
-0.33546007 -0.27287319 0.71652442 -1.2928991 -0.079093397 0.45968407 0.087504216
-0.34677878 -0.20317823 0.70089155 -1.286129 -0.12320831 0.50340229 0.087504216
-0.32381943 -0.24076033 0.75065911 -1.2090803 -0.051613681 0.51571029 0.087504216
-0.31468204 -0.1751454 0.77561599 -1.1228096 -0.045009945 0.59171367 0.087504216
-0.29555777 -0.62246013 0.96215874 -1.09075 0.34833807 0.28931239 0.087504216
-0.30854765 -0.56349099 0.85186338 -1.2356404 0.19988261 0.27785841 0.087504216
-0.36457962 -0.16512226 0.66593105 -1.3353857 -0.17818987 0.50332576 0.087504216
-0.25513768 -0.31885871 0.89375663 -0.97336257 0.13824959 0.57803732 0.087504216
-0.33168316 -0.27706861 0.72636676 -1.2763797 -0.066130079 0.46434179 0.087504216
-0.29163048 -0.33458892 0.82607865 -1.1184644 0.069177113 0.49923572 0.087504216
-0.30290395 -0.27522025 0.79651004 -1.1390927 0.01351099 0.52681309 0.087504216
-0.33567443 -0.35491604 0.70188093 -1.3662237 -0.062729269 0.37649655 0.087504216
-0.24456613 -0.3412613 0.9172585 -0.94169968 0.17216486 0.57929415 0.087504216
-0.31103295 -0.23471844 0.77944899 -1.1488752 -0.020507202 0.54633635 0.087504216
-0.28563917 -0.23710282 0.82863051 -1.0516511 0.036730211 0.58986926 0.087504216
-0.3102226 -0.31442526 0.78043139 -1.1942385 0.010029498 0.4776046 0.087504216
-0.18034884 -0.16908121 0.95460075 -0.74059713 0.15895222 0.78066009 0.087504216
0.47577134 0.28123385 1.1092039 -0.30690041 0.2614252 1.1041436 0.087504216
0.42761511 -0.18005246 1.2181515 -0.26849797 0.34847829 1.0668267 0.087504216
0.12340257 0.25787827 1.0268171 -0.30951375 0.21356559 1.1421552 0.087504216
0.29414749 -0.055423558 1.1458067 -0.28605628 0.30813849 1.0843433 0.087504216
0.1123447 0.42341974 0.99428421 -0.27131179 0.20811962 1.1828907 0.087504216
0.29118577 0.26554427 1.0667934 -0.27050999 0.25142047 1.1470221 0.087504216
0.18061532 0.35670263 1.0222923 -0.26847869 0.22727448 1.1693676 0.087504216
0.076122612 -0.033939466 1.0733567 -0.383645 0.25973892 1.03299 0.087504216
0.11693716 -0.21016125 1.1413229 -0.35515603 0.34971169 0.98382777 0.087504216
-0.2938706 -0.13088578 0.81322336 -1.0205339 -0.014285088 0.66245019 0.087504216
0.072789378 -0.11464398 1.0938914 -0.39111423 0.29056254 0.99985331 0.087504216
-0.078920297 0.089629307 0.98106968 -0.5091272 0.14935693 1.0076858 0.087504216
0.59437394 -0.081160806 1.2353495 -0.34076768 0.28493825 1.0522252 0.087504216
-0.22517477 -0.026871225 0.89303643 -0.78629041 0.055897743 0.82461703 0.087504216
0.14394686 0.097968951 1.064992 -0.32790682 0.24279962 1.100032 0.087504216
0.37011951 0.23054832 1.0936468 -0.27907515 0.26082689 1.1309651 0.087504216
0.87628078 -0.21730457 1.3950975 -0.57184124 0.1904341 0.91362894 0.087504216
0.2410538 -0.0037436015 1.117379 -0.29856199 0.28750172 1.0899723 0.087504216
0.28294402 0.20842791 1.0774297 -0.27764249 0.25379622 1.138267 0.087504216
-0.0053073848 0.25236389 0.9883374 -0.38857925 0.16298553 1.1101642 0.087504216
0.44314337 0.45241547 1.0594406 -0.27557877 0.27718627 1.1204338 0.087504216
0.060617715 0.38799334 0.98760939 -0.30445796 0.18707226 1.1693465 0.087504216
0.19882306 0.31570712 1.0346044 -0.27317932 0.23204647 1.1608855 0.087504216
0.76939315 0.33065507 1.2189014 -0.5764364 0.19915737 0.9019044 0.087504216
-0.29798663 -0.15445967 0.80612499 -1.0487401 -0.015685793 0.63695937 0.087504216
-0.18469808 -0.096876502 0.93792588 -0.72942656 0.12319732 0.82146847 0.087504216
0.26587036 0.38719493 1.0348965 -0.25105202 0.24843362 1.1679506 0.087504216
-0.26948872 -0.013146934 0.84670436 -0.88165301 -0.0034701959 0.78464675 0.087504216
0.032006361 0.052806694 1.0367674 -0.40695304 0.21600492 1.04794 0.087504216
-0.18287182 0.016330024 0.92558509 -0.68547511 0.088212922 0.89262718 0.087504216
0.017212242 0.3051514 0.98798788 -0.35589725 0.16969305 1.1353991 0.087504216
0.4407146 0.45389953 1.0584778 -0.2743032 0.27731466 1.1215316 0.087504216
0.39580727 -0.077274628 1.1783904 -0.27930298 0.31506613 1.0848703 0.087504216
0.12785156 -0.12168084 1.1161585 -0.35125038 0.30928531 1.021717 0.087504216
-0.11852077 -0.02129009 0.97582883 -0.59331447 0.15375228 0.92434901 0.087504216
0.34825107 0.028843246 1.1369773 -0.28357306 0.28730881 1.104311 0.087504216
-0.24675241 -0.043503031 0.87220001 -0.84280342 0.034082882 0.7896232 0.087504216
0.14086381 0.24965999 1.0330646 -0.30404666 0.21958108 1.1422372 0.087504216
0.15960979 0.039477929 1.0831491 -0.32673219 0.26075071 1.0859586 0.087504216
-0.37244958 -0.11895931 0.6625452 -1.3203048 -0.19823079 0.53454041 0.087504216
0.31318176 0.35267326 1.0527409 -0.25845098 0.25479794 1.1555698 0.087504216
0.17786579 -0.10373966 1.1270409 -0.32307136 0.31222147 1.0458832 0.087504216
-0.10121506 0.35539415 0.94045722 -0.43553635 0.1044018 1.1153095 0.087504216
0.36967692 0.13585596 1.1157731 -0.28389513 0.26901269 1.1194825 0.087504216
0.19324738 0.014850115 1.0991371 -0.31396633 0.27461854 1.0863013 0.087504216
-0.10410509 0.14060806 0.96139163 -0.52296782 0.12247092 1.0173383 0.087504216
-0.20168327 -0.14581466 0.92944819 -0.78042048 0.12479883 0.77188706 0.087504216
0.33232319 0.039519519 1.130128 -0.2839503 0.28435871 1.1064497 0.087504216
0.035216734 0.14782654 1.0196795 -0.3853375 0.19578223 1.0854883 0.087504216
0.14774148 0.049759351 1.0771108 -0.33149329 0.25516564 1.0861801 0.087504216
0.23836367 0.39679185 1.0269908 -0.25045687 0.24317144 1.1729646 0.087504216
0.3101784 -0.16836809 1.1846397 -0.27456996 0.35075989 1.0591543 0.087504216
0.31249028 -0.061102461 1.1522381 -0.28305385 0.31080496 1.0849273 0.087504216
0.29957265 0.39827648 1.0397305 -0.24958688 0.25535381 1.1634827 0.087504216
0.071078554 0.041102737 1.0538254 -0.37869602 0.23431224 1.0591781 0.087504216
-0.21396968 -0.10704188 0.9115324 -0.79478985 0.094878718 0.78360599 0.087504216
-0.07986483 0.059385315 0.98520303 -0.51896161 0.15624931 0.99255496 0.087504216
0.54003334 -0.19531833 1.2524441 -0.29200724 0.33402786 1.0568162 0.087504216
-0.22165346 0.023429567 0.89319187 -0.75567365 0.047132473 0.86098665 0.087504216
0.023960818 -0.0014231034 1.0451823 -0.42263493 0.22879413 1.0222911 0.087504216
0.029078133 0.19772033 1.0088544 -0.37789777 0.18511456 1.1015478 0.087504216
0.09953285 0.12801693 1.0449969 -0.34679547 0.2234823 1.0985082 0.087504216
0.48787677 -0.44344258 1.3345631 -0.20623733 0.47185466 1.0213484 0.087504216
-0.13829552 0.11146313 0.94586736 -0.57838398 0.10364806 0.98085093 0.087504216
-0.29713783 -0.089772992 0.80968249 -1.0048414 -0.029949194 0.69054091 0.087504216
0.25493699 0.39283013 1.0313596 -0.25026566 0.24654284 1.1702937 0.087504216
0.28772041 -0.099032186 1.1568509 -0.2850982 0.32273582 1.072902 0.087504216
-0.28084522 -0.10760593 0.83242893 -0.96667337 0.0019816943 0.69962841 0.087504216
-0.15074542 -0.15587547 0.97803485 -0.67923117 0.18167257 0.81947762 0.087504216
0.58140332 -0.22608174 1.2738947 -0.30189773 0.3346175 1.0469637 0.087504216
0.32559505 0.41318142 1.042004 -0.24930592 0.26075315 1.1591812 0.087504216
0.40682256 -0.25274089 1.2380738 -0.25351468 0.38270813 1.0520428 0.087504216
-0.076880574 -0.1715256 1.0357653 -0.55986136 0.24696253 0.87714309 0.087504216
0.31817558 0.20760937 1.086195 -0.27671871 0.25810733 1.135494 0.087504216
0.05219575 0.016434256 1.0523667 -0.39633811 0.23456229 1.0422817 0.087504216
0.74159461 0.33289117 1.2015086 -0.53653932 0.21182898 0.92891794 0.087504216
-0.11082841 0.0093532065 0.97566015 -0.57365131 0.14959641 0.94646049 0.087504216
-0.30701527 -0.086102039 0.79519349 -1.033424 -0.048351642 0.67907548 0.087504216
0.60271782 -0.044623509 1.2283895 -0.35238922 0.27411988 1.0503852 0.087504216
-0.21876301 -0.1749635 0.91586202 -0.82933736 0.11697619 0.73224157 0.087504216
0.28188244 0.3012751 1.0568511 -0.26571864 0.24918084 1.1534479 0.087504216
0.47434616 0.36013237 1.0900155 -0.30089629 0.26601124 1.1059427 0.087504216
0.53799069 0.21670519 1.1429335 -0.33940628 0.25614831 1.0778652 0.087504216
-0.070221372 -0.019959761 1.0042574 -0.52679235 0.18624409 0.95977747 0.087504216
0.20653968 -0.13592914 1.1455975 -0.30871037 0.33003587 1.0443963 0.087504216
-0.071412839 -0.10769991 1.022531 -0.54451805 0.21983537 0.91459984 0.087504216
0.015029894 -0.056122571 1.0541886 -0.43813062 0.24430989 0.99451196 0.087504216
0.24390712 -0.026434397 1.1242353 -0.29798868 0.29459798 1.084512 0.087504216
0.77831566 -0.17230125 1.3311819 -0.4666205 0.23755224 0.97328413 0.087504216
0.78503716 0.22149146 1.2518567 -0.58306813 0.18286459 0.90941411 0.087504216
0.13092028 -0.046656467 1.0958667 -0.34773386 0.28042412 1.0494554 0.087504216
0.41679907 0.10929378 1.1343832 -0.29139274 0.27279577 1.1091918 0.087504216
0.082048714 0.030010862 1.0602055 -0.3724694 0.24126071 1.0591893 0.087504216
0.37553397 -0.17916611 1.2048162 -0.26658165 0.35309863 1.0647308 0.087504216
0.24509802 0.39925343 1.0279139 -0.24944027 0.24482673 1.1725259 0.087504216
0.36909053 0.44835809 1.0433189 -0.25108224 0.27058697 1.1491833 0.087504216
0.11302793 -0.031821817 1.085953 -0.35790583 0.27042627 1.0482923 0.087504216
0.98839289 0.22539513 1.4587555 -1.0375267 0.0036487239 0.63120985 0.087504216
-0.28782725 0.038749278 0.82750922 -0.89545 -0.037959632 0.80077201 0.087504216
0.032610111 -0.046185169 1.0592828 -0.42064077 0.24800014 1.0079312 0.087504216
0.028236596 0.1328005 1.019884 -0.39401737 0.19568498 1.0773617 0.087504216
0.44476563 0.33771172 1.0875057 -0.29019696 0.26432323 1.1174893 0.087504216
0.13564064 0.1046005 1.0610517 -0.33106107 0.23913501 1.1001487 0.087504216
0.34851184 0.053602729 1.1306758 -0.28379259 0.28196931 1.1086199 0.087504216
-0.23401697 -0.013792614 0.88375455 -0.79932451 0.042094793 0.82396573 0.087504216
0.148946 0.048044045 1.0778818 -0.33106679 0.25591236 1.0859518 0.087504216
0.075854018 0.068334892 1.0495881 -0.37135634 0.2287672 1.0708098 0.087504216
0.14831564 -0.063493766 1.1061335 -0.33835819 0.29071233 1.0496198 0.087504216
-0.24990264 -0.036493521 0.86855638 -0.8467409 0.028175864 0.79089594 0.087504216
-0.29027024 0.0058584702 0.8231256 -0.92312294 -0.036701597 0.77353662 0.087504216
0.023765365 -0.037158936 1.0533693 -0.42763695 0.24100684 1.0072302 0.087504216
0.085128345 0.06474334 1.0535504 -0.36567435 0.23287804 1.0727062 0.087504216
0.43501037 0.35855994 1.0800685 -0.2844463 0.26563096 1.1218218 0.087504216
-0.10820427 0.0064218459 0.97771388 -0.57079071 0.15237121 0.94681877 0.087504216
-0.039786108 -0.1239936 1.0446516 -0.50559098 0.24595998 0.92931652 0.087504216
0.60406756 -0.31038547 1.3085269 -0.28866136 0.36271563 1.0357145 0.087504216
0.20297788 0.50837868 0.99687988 -0.2257136 0.2454491 1.1944386 0.087504216
0.702479 0.22497872 1.2050031 -0.47677273 0.2185301 0.97977304 0.087504216
0.49920508 0.23339415 1.127219 -0.31905308 0.25977165 1.0940491 0.087504216
0.13578083 -0.22303526 1.1526145 -0.34099168 0.36079285 0.98785025 0.087504216
0.23748578 0.37240574 1.0318491 -0.25569463 0.24176209 1.1692033 0.087504216
0.36527058 0.30345461 1.075791 -0.27151936 0.25930941 1.1393945 0.087504216
0.10818806 -0.028265303 1.0833803 -0.36077142 0.26781994 1.0477868 0.087504216
0.41507578 0.3266938 1.082546 -0.28097734 0.26298639 1.1273395 0.087504216
0.40286943 -0.16194113 1.2060512 -0.26948687 0.34401795 1.0696642 0.087504216
-0.24805534 -0.040810596 0.87069613 -0.8445431 0.031688072 0.7900036 0.087504216
-0.13411929 -0.043197885 0.9690659 -0.62334067 0.14918666 0.89981407 0.087504216
-0.13980368 -0.10862695 0.97680598 -0.64945096 0.1699156 0.85758668 0.087504216
-0.15171324 -0.20537932 0.98913819 -0.68961376 0.20621195 0.78890133 0.087504216
-0.19326733 0.091428764 0.9116953 -0.67176551 0.061330702 0.92833167 0.087504216
0.75972348 0.056704063 1.2705443 -0.51314515 0.20162462 0.95967418 0.087504216
-0.064342372 0.11736164 0.9840759 -0.48432469 0.15206051 1.0288556 0.087504216
0.23222734 0.43789116 1.0171862 -0.24155873 0.2448633 1.1799488 0.087504216
0.0029102755 0.1245162 1.0117778 -0.4166902 0.18600844 1.0641043 0.087504216
-0.22895244 -0.22275428 0.91184258 -0.86983633 0.12619317 0.68614393 0.087504216
-0.042496163 0.21906134 0.97917944 -0.43077612 0.14757377 1.0832936 0.087504216
-0.031420328 -0.0090402402 1.0220622 -0.47888759 0.20484465 0.98934907 0.087504216
0.76243657 -0.78909576 1.5678097 -0.15055132 0.59120208 0.97306025 0.087504216
0.10666547 -0.059635058 1.0910749 -0.36374274 0.27860054 1.0358578 0.087504216
0.18128213 -0.10485653 1.1284268 -0.32138187 0.31327102 1.0465932 0.087504216
0.42080167 0.22542547 1.1076332 -0.29003462 0.26263756 1.1190687 0.087504216
-0.042403247 0.066015303 1.0026009 -0.47446412 0.17661838 1.0174083 0.087504216
0.2052882 -0.11270621 1.138023 -0.31027544 0.32020512 1.0512316 0.087504216
0.23369226 0.015345343 1.1103896 -0.30017951 0.28118074 1.0937892 0.087504216
0.17568401 0.42748612 1.0074962 -0.25218314 0.22890769 1.1833973 0.087504216
0.30602911 0.57115668 1.0016398 -0.21047698 0.28234652 1.1776381 0.087504216
0.37202561 0.049853589 1.1376635 -0.28467196 0.28318742 1.1067579 0.087504216
0.18238692 0.10337877 1.0748862 -0.31098965 0.25103664 1.1090637 0.087504216
0.14423455 0.33937377 1.017006 -0.28286242 0.21663105 1.1647673 0.087504216
0.35013276 0.055061262 1.1307199 -0.2838181 0.28172231 1.1088047 0.087504216
-0.24316032 -0.30815148 0.91040653 -0.93185812 0.15266153 0.6050989 0.087504216
-0.074171476 0.223811 0.96548063 -0.46007228 0.12898622 1.0713097 0.087504216
1.0596926 0.39871466 1.6877036 -1.5690939 -0.19656278 0.29784068 0.087504216
-0.12883276 0.20288968 0.94206542 -0.53000212 0.09590596 1.0331562 0.087504216
0.10580512 0.15793061 1.0409346 -0.33803415 0.22012512 1.1096338 0.087504216
0.13924906 0.41585287 1.0017388 -0.26460263 0.21688537 1.1818211 0.087504216
-0.15657905 -0.20016789 0.98351324 -0.69835496 0.19875713 0.78694028 0.087504216
-0.13097331 0.20240173 0.94100851 -0.53288144 0.094441704 1.0316716 0.087504216
0.14820255 -0.10389452 1.1176602 -0.33891556 0.306429 1.0357984 0.087504216
0.3088277 0.32221916 1.0584594 -0.26287788 0.25331452 1.152638 0.087504216
0.42041901 0.60539204 1.0146028 -0.23465489 0.30974093 1.1316 0.087504216
-0.34972721 0.04037156 0.74809474 -1.0687391 -0.13885394 0.7222299 0.087504216
0.12070385 0.1131542 1.0546752 -0.33747515 0.23306513 1.0992169 0.087504216
0.28779259 0.54888749 1.0036064 -0.21423095 0.27374199 1.1813661 0.087504216
0.029101966 0.19555098 1.0092276 -0.37843022 0.18543033 1.1007771 0.087504216
-0.28459221 -0.05595037 0.82796574 -0.94681352 -0.0165898 0.73411965 0.087504216
0.18737388 0.41888773 1.011664 -0.25208342 0.23166507 1.1811593 0.087504216
0.11803133 0.29768622 1.0180485 -0.30271807 0.20937106 1.1521301 0.087504216
-0.045819681 0.39148527 0.95630926 -0.37179077 0.13687235 1.1481301 0.087504216
0.27255276 -0.10814462 1.1555498 -0.28797892 0.32525834 1.0680438 0.087504216
-0.12169486 0.19669743 0.94629502 -0.52364546 0.10170583 1.0342619 0.087504216
0.30890256 -0.16987242 1.1848075 -0.27462271 0.35139927 1.0585635 0.087504216
-0.18515007 0.11426448 0.91587269 -0.64800602 0.064532369 0.94809371 0.087504216
0.49915317 0.12569292 1.1530268 -0.31746358 0.26575714 1.0904894 0.087504216
-0.27780265 -0.078085288 0.83647752 -0.94101876 -0.00085397396 0.72628951 0.087504216
0.19931974 0.50969177 0.99591947 -0.22574268 0.24458654 1.1951407 0.087504216
0.17581177 -0.33150432 1.2097256 -0.29886466 0.43271059 0.96685827 0.087504216
0.33687049 -0.033477958 1.1507758 -0.28207186 0.30307278 1.0923965 0.087504216
-0.085463136 0.19460443 0.96397364 -0.48238692 0.12582698 1.0528783 0.087504216
-0.15682106 -0.18851511 0.98041648 -0.69690621 0.19234814 0.79373157 0.087504216
-0.12326673 0.26915994 0.93883097 -0.49583349 0.093357198 1.0676266 0.087504216
0.58916938 -0.043322314 1.2235645 -0.34457409 0.27729735 1.0550885 0.087504216
0.0252658 0.34379825 0.98466051 -0.3384752 0.17198327 1.1499385 0.087504216
0.5968495 0.18587211 1.1699989 -0.37648353 0.24724586 1.0503303 0.087504216
-0.11360512 0.26114929 0.94400764 -0.48818818 0.10046898 1.0688413 0.087504216
0.82120138 0.3891536 1.2433515 -0.67135799 0.17962769 0.82865328 0.087504216
-0.23623759 -0.088424772 0.88626325 -0.83885145 0.060930368 0.77065122 0.087504216
0.41649204 0.57285774 1.0225393 -0.24095239 0.30041271 1.1335347 0.087504216
0.24475779 0.55470383 0.994605 -0.21030354 0.26456299 1.1928446 0.087504216
0.39293188 0.60878879 1.0081631 -0.22276846 0.30716932 1.1450167 0.087504216
1.0930661 -0.13013136 1.6154557 -1.1163267 -0.076187968 0.62421733 0.087504216
0.43625733 -0.0026879981 1.1681994 -0.29085684 0.29240534 1.0931115 0.087504216
0.1558921 0.20340994 1.0462116 -0.30692613 0.2284904 1.1319779 0.087504216
0.73013276 -0.24818434 1.3303347 -0.39342579 0.2862561 1.0013099 0.087504216
-0.34107733 0.1635236 0.78000581 -0.93792456 -0.12236997 0.83200246 0.087504216
0.47960439 0.53900594 1.0462356 -0.27896217 0.29629388 1.1010715 0.087504216
-0.18277891 0.057086494 0.92191088 -0.66878188 0.078215517 0.91687107 0.087504216
0.2132912 0.075430118 1.0899367 -0.30302286 0.26314113 1.1063594 0.087504216
0.26313493 0.48858464 1.0125445 -0.22835231 0.25800419 1.1813231 0.087504216
0.32701379 0.09107431 1.1158323 -0.28345469 0.27377462 1.1158711 0.087504216
-0.33215103 -0.048202328 0.75995737 -1.0875542 -0.10146158 0.67280668 0.087504216
-0.05450879 0.22837374 0.97311819 -0.43900853 0.13984735 1.0820434 0.087504216
0.16990656 0.5173139 0.98882139 -0.22777134 0.23675294 1.1998483 0.087504216
0.20445368 0.11495893 1.0783406 -0.30224651 0.25342372 1.1153133 0.087504216
-0.13956708 -0.076022901 0.97084105 -0.64105093 0.1568678 0.8765676 0.087504216
-0.133443 0.082282186 0.95200539 -0.58224654 0.11354241 0.96882868 0.087504216
0.28317115 0.57056153 0.99773544 -0.20779198 0.27718809 1.1845406 0.087504216
0.024256753 0.023602257 1.0398262 -0.41848767 0.22108388 1.0327351 0.087504216
0.083691105 0.24424343 1.018117 -0.33193904 0.20125361 1.1313611 0.087504216
0.191634 0.091254413 1.0802435 -0.30885953 0.25552478 1.1072818 0.087504216
0.80555606 0.38509947 1.2319933 -0.64213538 0.1883367 0.84892344 0.087504216
0.097119235 0.2362531 1.0234656 -0.32669562 0.20678706 1.1316394 0.087504216
0.32287955 0.41292682 1.0414778 -0.24900959 0.26032344 1.159825 0.087504216
0.15123931 0.43880752 1.0001128 -0.25484297 0.22225219 1.1865115 0.087504216
-0.30274031 0.17584988 0.82101732 -0.83688819 -0.068801776 0.88224447 0.087504216
-0.38959184 -0.073221363 0.63890392 -1.3466181 -0.2422566 0.54689503 0.087504216
0.32516825 0.081826009 1.11764 -0.28373796 0.27534005 1.1142792 0.087504216
0.39350274 0.60880888 1.0082688 -0.22297312 0.30725622 1.1447496 0.087504216
0.36492392 0.59234095 1.0071336 -0.21786499 0.29843754 1.15704 0.087504216
-0.35172734 0.019320427 0.74089074 -1.0943624 -0.14278263 0.70132023 0.087504216
0.070164755 0.38295186 0.99089676 -0.30127063 0.19080937 1.1691997 0.087504216
0.15242709 0.24430715 1.0371635 -0.30071744 0.22337289 1.1421784 0.087504216
-0.064787559 -0.15322354 1.0381912 -0.54107368 0.24535233 0.89627326 0.087504216
-0.21802515 0.033471026 0.89577711 -0.74373293 0.048756309 0.87090582 0.087504216
0.92374802 0.75483829 1.2617273 -0.95413387 0.21914333 0.52779704 0.087504216
-0.31468874 -0.050587967 0.78668296 -1.0323353 -0.068150118 0.69685203 0.087504216
0.07214012 0.015434926 1.0600052 -0.38132536 0.24216539 1.0500486 0.087504216
0.38405633 0.093225881 1.129845 -0.28609085 0.27542648 1.1119808 0.087504216
1.070055 0.43647453 1.7990532 -1.7805883 -0.2901665 0.1769996 0.087504216
0.072505862 0.37634608 0.99258232 -0.30213225 0.19163305 1.1676881 0.087504216
-0.044866864 0.020482911 1.009667 -0.48777083 0.18807662 0.99513149 0.087504216
