# .PCD v0.7 - Point Cloud Data file format
VERSION 0.7
FIELDS x y z normal_x normal_y normal_z curvature
SIZE 4 4 4 4 4 4 4
TYPE F F F F F F F
COUNT 1 1 1 1 1 1 1
WIDTH 603
HEIGHT 1
VIEWPOINT 0 0 0 1 0 0 0
POINTS 603
DATA ascii
0.37502795 0.33832461 1.0509204 -0.50056523 0.19695373 0.9503715 0.081639022
0.50897831 0.06909062 1.1405201 -0.29577041 0.10087892 1.0714681 0.081639022
0.21837519 0.3308956 0.97472972 -0.41502199 0.35357726 0.87516433 0.081639022
0.18915676 0.32044575 0.96557003 -0.39255202 0.37662259 0.86697829 0.081639022
0.5386821 0.30556476 1.1405921 -0.55520529 0.0096712047 1.0541843 0.081639022
-0.026808536 0.11587365 0.99465209 -0.19976339 0.45302805 0.87430596 0.081639022
-0.11105873 0.23439187 0.90381557 -0.24009959 0.53286076 0.81151372 0.081639022
0.096597262 0.058444999 1.0481619 -0.18279113 0.39263764 0.91786033 0.081639022
0.42129397 -0.11854702 1.1550198 -0.10617079 0.2446558 1.0347944 0.081639022
0.37283984 -0.16907641 1.1645215 -0.062111191 0.29958093 1.0125178 0.081639022
0.26771668 -0.19255772 1.1669143 -0.044902425 0.36684895 0.97452617 0.081639022
0.089905053 -0.11941279 1.1236652 -0.096590705 0.41203564 0.93057615 0.081639022
0.40828118 0.064927079 1.114679 -0.25570253 0.19057178 1.0258006 0.081639022
0.35475919 0.11620121 1.0899312 -0.28240258 0.22418581 0.99653041 0.081639022
0.46205664 0.33193105 1.0983312 -0.54115498 0.098162465 1.0017039 0.081639022
0.38092145 0.26355407 1.068679 -0.42859295 0.18882173 0.976542 0.081639022
0.3636533 0.28807464 1.0558987 -0.44428167 0.20639652 0.96073461 0.081639022
-0.045625526 -0.17131317 1.1335579 -0.10870109 0.45245883 0.90120393 0.081639022
0.043704819 -0.0026586133 1.0655396 -0.14998458 0.41396844 0.91378236 0.081639022
-0.34565604 -0.04741963 1.0131218 -0.21940748 0.45719314 0.86591911 0.081639022
0.30641142 -0.66438305 1.4413315 0.21331742 0.77023536 0.79187286 0.081639022
0.07488399 -0.32793149 1.2242795 -0.027439717 0.49338517 0.89871699 0.081639022
0.31212446 0.35649091 1.0130314 -0.48572809 0.26693776 0.9099524 0.081639022
0.34633321 0.34753317 1.0336591 -0.49474537 0.22903016 0.9315601 0.081639022
0.3027485 0.30527115 1.0232786 -0.43137288 0.26834279 0.92489231 0.081639022
-0.25785857 -0.0098445388 1.0135705 -0.18975283 0.47002012 0.86635941 0.081639022
0.38118967 0.21984133 1.0772185 -0.38657245 0.19031559 0.98783106 0.081639022
0.13504335 -0.14074667 1.1372612 -0.082132347 0.40231845 0.94100147 0.081639022
0.15521498 0.19038749 1.007552 -0.27795354 0.37192693 0.90337247 0.081639022
0.32546529 0.2928519 1.0371923 -0.43043613 0.24478599 0.94022566 0.081639022
0.38750067 0.082039401 1.1060838 -0.26382154 0.20364752 1.0150752 0.081639022
0.33075231 -0.012006351 1.1159309 -0.17205448 0.26790452 1.0007336 0.081639022
0.3885383 0.21819486 1.0804058 -0.38826925 0.18342376 0.99174273 0.081639022
0.30912358 0.20319209 1.054139 -0.34120136 0.25580055 0.95918536 0.081639022
0.31603283 0.15537815 1.0689765 -0.30249581 0.25150153 0.97321194 0.081639022
0.36495885 0.089459203 1.0986477 -0.26286972 0.22034569 1.0046771 0.081639022
0.47519156 0.060690373 1.1323892 -0.27503082 0.13444933 1.056049 0.081639022
0.45361701 0.3311902 1.0938605 -0.53567696 0.10806901 0.9969666 0.081639022
0.51399243 -0.5590719 1.3076351 0.22512113 0.5291208 0.94946241 0.081639022
0.26551187 -0.30785057 1.2142174 0.019571081 0.42874777 0.95373935 0.081639022
0.60518277 -0.047136221 1.1715266 -0.21910954 0.059812777 1.1200604 0.081639022
0.50359792 -0.077242158 1.1572307 -0.15883327 0.1638338 1.0711209 0.081639022
-0.11353347 0.23858316 0.90031499 -0.24143688 0.53624266 0.80896193 0.081639022
0.27553645 -0.63843518 1.4243717 0.1828583 0.74227345 0.80087429 0.081639022
0.054500841 -0.75882912 1.609202 0.039120544 0.97121936 0.61262107 0.081639022
0.065854229 -0.30291581 1.2104135 -0.038004611 0.48192316 0.90296644 0.081639022
0.088443041 0.065736309 1.0433795 -0.18592487 0.3967374 0.91432619 0.081639022
0.42877623 0.2055763 1.0981734 -0.39417544 0.14566368 1.0141627 0.081639022
0.25288406 -0.17831063 1.1607842 -0.053890854 0.36760893 0.97142118 0.081639022
0.27645358 -0.20300461 1.1712199 -0.038302563 0.36749414 0.97603673 0.081639022
0.063322268 -0.37788668 1.2525059 -0.019506566 0.52402228 0.88144153 0.081639022
0.36379302 0.34498531 1.0435396 -0.50141537 0.20979297 0.94191533 0.081639022
0.46156642 0.2679337 1.1044738 -0.47302124 0.10409136 1.0177665 0.081639022
0.38149387 0.26614311 1.0684313 -0.43140376 0.18820496 0.97611731 0.081639022
0.36582381 0.025995461 1.1131045 -0.21017365 0.2334094 1.0116799 0.081639022
0.30086225 0.039776973 1.0960838 -0.20494066 0.27659354 0.98559606 0.081639022
0.40661418 -0.064809509 1.1408324 -0.14626192 0.23254952 1.0308524 0.081639022
0.33396745 0.28973612 1.0418736 -0.43151987 0.23617902 0.94541252 0.081639022
0.32699272 0.14839049 1.0741311 -0.30040371 0.24311212 0.9791851 0.081639022
0.32753268 0.081236199 1.0910776 -0.24455296 0.25062779 0.99065417 0.081639022
-0.14653389 -0.06183229 1.0631142 -0.15656169 0.45578399 0.88513225 0.081639022
0.64353293 0.19175901 1.1864579 -0.48664954 -0.08511547 1.1347597 0.081639022
0.26608229 -0.30757436 1.2140816 0.019525908 0.42834967 0.95398068 0.081639022
0.008485443 0.018764451 1.049625 -0.15957902 0.42657971 0.902924 0.081639022
-0.10997907 0.23237592 0.90545511 -0.23943341 0.5313009 0.8127051 0.081639022
0.067891285 -0.3202931 1.2198673 -0.032359883 0.49039856 0.89919269 0.081639022
0.24296074 0.10816333 1.0621636 -0.24220791 0.3082718 0.95448434 0.081639022
-0.16354389 -0.050377838 1.0541191 -0.16237015 0.45820534 0.88189173 0.081639022
-0.17681482 -0.14657286 1.101411 -0.15752202 0.45685241 0.8841694 0.081639022
-0.57765514 -0.14578383 0.98415107 -0.37077215 0.36708158 0.87942439 0.081639022
0.47928014 0.3278856 1.1079824 -0.54636914 0.078118891 1.0129988 0.081639022
0.24188831 0.23448893 1.0202398 -0.34180859 0.31377152 0.92194623 0.081639022
0.2824651 0.060950749 1.0860627 -0.21665461 0.28574097 0.97633463 0.081639022
0.064302959 0.21727112 0.96704698 -0.27050632 0.43581399 0.86469793 0.081639022
-0.41078469 -0.010826348 0.97631997 -0.23867017 0.46083674 0.85797685 0.081639022
-0.18988138 -0.060177248 1.0542854 -0.16811173 0.45912841 0.8796286 0.081639022
0.20856862 -0.15063329 1.1472411 -0.071514331 0.37674347 0.96044612 0.081639022
-0.0086393971 0.053721551 1.0296769 -0.17404409 0.43538207 0.89308161 0.081639022
0.10237746 -0.015449755 1.0804957 -0.14417772 0.3920092 0.92951345 0.081639022
0.12579161 -0.067715086 1.1056024 -0.11789665 0.38917807 0.93898129 0.081639022
0.2412551 0.30071521 0.99677515 -0.39864647 0.32522073 0.89806485 0.081639022
0.16198826 -0.031063896 1.0957804 -0.13790818 0.36767179 0.94689977 0.081639022
0.18616436 0.20716073 1.0107036 -0.29997557 0.35297686 0.90907079 0.081639022
0.034096006 0.18097803 0.97651953 -0.24150321 0.44210127 0.86912936 0.081639022
-0.05251424 0.12200858 0.98551279 -0.20036708 0.46428159 0.86693537 0.081639022
0.30524325 -0.0056001637 1.1097542 -0.17186113 0.28309417 0.99107885 0.081639022
0.14145286 -0.14461838 1.1394634 -0.079662092 0.40116256 0.9424603 0.081639022
0.37566611 0.31648648 1.0557318 -0.47864524 0.19499485 0.95801097 0.081639022
0.46306151 0.066688441 1.128423 -0.27618596 0.14339426 1.0499938 0.081639022
-0.4946295 -0.39772764 1.128446 -0.43653661 0.38493729 0.84884614 0.081639022
-0.53146988 -0.25090402 1.0477277 -0.39020953 0.36477444 0.87523568 0.081639022
-0.39675057 -0.55803061 1.2664182 -0.42389587 0.5035283 0.77671146 0.081639022
-0.20804265 -0.72037131 1.5062261 -0.27025548 0.79368651 0.63597488 0.081639022
-0.30378863 -0.51055259 1.2778547 -0.30355695 0.5346204 0.79189831 0.081639022
-0.22804341 -0.51365668 1.3055974 -0.2304406 0.57228518 0.78912324 0.081639022
-0.53425336 -0.24954155 1.0459179 -0.39165902 0.36357471 0.87558031 0.081639022
-0.2149152 -0.70772821 1.4879196 -0.27474526 0.77102822 0.64915258 0.081639022
-0.38155949 -0.23969035 1.0998284 -0.27762941 0.426617 0.86850226 0.081639022
-0.52223915 -0.37271765 1.1031448 -0.44806024 0.36542472 0.8579632 0.081639022
-0.35159764 -0.98708838 2.0430851 -0.62994266 1.3882523 0.15104833 0.081639022
-0.30753547 -0.69517928 1.4275702 -0.38787219 0.68503255 0.67116827 0.081639022
-0.45063943 -0.26344326 1.0868517 -0.33479804 0.40085456 0.8683148 0.081639022
-0.42001703 -0.31980789 1.1253239 -0.33396295 0.41615996 0.85877305 0.081639022
-0.33168253 -0.41337472 1.2073829 -0.29489014 0.47622994 0.83175409 0.081639022
-0.49073273 -0.36445513 1.1153926 -0.41489288 0.38383532 0.85585725 0.081639022
0.33105811 0.18982416 1.0652671 -0.33802557 0.23724362 0.97197461 0.081639022
0.25453675 0.32936087 0.99261564 -0.43076807 0.31924519 0.89252549 0.081639022
0.19110323 -0.0070711207 1.091188 -0.15426509 0.349832 0.95353901 0.081639022
-0.071441606 -0.14392929 1.1165012 -0.12204794 0.45101982 0.89823484 0.081639022
0.096911058 0.18078539 0.99437827 -0.25565651 0.40695554 0.88747483 0.081639022
-0.17591634 0.22470538 0.89161599 -0.2265161 0.55207431 0.80318809 0.081639022
-0.57761383 0.020065922 0.9076705 -0.29793024 0.44126517 0.85322201 0.081639022
-0.43485087 0.015661288 0.95515937 -0.2425281 0.46833867 0.85205656 0.081639022
0.34442496 -0.22402993 1.1809268 -0.023237754 0.34368825 0.99564606 0.081639022
0.38496077 0.10022494 1.101764 -0.27884531 0.20209144 1.0116924 0.081639022
0.092732489 -0.044807624 1.0915598 -0.1298129 0.39866632 0.92944306 0.081639022
-0.2645058 0.0064423806 1.0032099 -0.19204037 0.47434264 0.8629294 0.081639022
0.019409865 0.014223517 1.0536722 -0.15755528 0.42266852 0.90601426 0.081639022
-0.26605725 -0.12926379 1.0746478 -0.19407931 0.45243582 0.87634081 0.081639022
-0.16946715 0.084490076 0.98020506 -0.18776371 0.48639357 0.85647106 0.081639022
-0.13107887 0.0824368 0.98968178 -0.18528607 0.47724342 0.86304295 0.081639022
-0.30378506 -0.012973403 1.0048574 -0.20267883 0.46906561 0.86320323 0.081639022
-0.52823865 -0.053519204 0.96160036 -0.30230787 0.4187282 0.86635488 0.081639022
-0.58486617 0.0082633263 0.91114098 -0.30583981 0.43245116 0.8565523 0.081639022
-0.26924103 0.17115645 0.90312409 -0.20843658 0.54445356 0.81332827 0.081639022
0.1078685 0.30160668 0.93961263 -0.34341908 0.43614176 0.84324282 0.081639022
0.093347341 0.18036139 0.99354845 -0.25450939 0.40897298 0.88651925 0.081639022
0.052247558 0.14259487 1.0002412 -0.22331454 0.42361405 0.88624859 0.081639022
0.16603909 0.27504119 0.97555554 -0.34545949 0.38238817 0.87701422 0.081639022
-0.17994384 -0.12494089 1.0896813 -0.15991341 0.45615599 0.88391781 0.081639022
-0.094427623 0.26003513 0.89187115 -0.25499624 0.5399527 0.80263907 0.081639022
0.44655484 -0.10481542 1.1547147 -0.12189151 0.22048213 1.0456685 0.081639022
0.050650924 -0.070619747 1.0972494 -0.12085683 0.41608557 0.9209162 0.081639022
0.60025656 0.44303387 1.183954 -0.752837 -0.095785066 1.0640184 0.081639022
0.073187329 0.28001866 0.93746024 -0.3149772 0.45248422 0.84108222 0.081639022
-0.2657434 0.0038466384 1.00436 -0.19225085 0.47367698 0.86329365 0.081639022
0.065801993 0.1607774 0.99509269 -0.23631585 0.42030445 0.88457608 0.081639022
-0.40020171 -0.20158929 1.0753047 -0.27847341 0.42180374 0.87133354 0.081639022
0.1857993 0.0036473204 1.086367 -0.16030085 0.35115275 0.9509359 0.081639022
-0.17556314 -0.15759036 1.1073303 -0.15649581 0.45752481 0.88403851 0.081639022
-0.20050639 -0.17979296 1.1142919 -0.16666128 0.45824936 0.88061327 0.081639022
-0.2718643 0.15842813 0.91089767 -0.20662445 0.53759587 0.81824058 0.081639022
0.41705722 0.26787785 1.0840502 -0.45048621 0.15166467 0.99391806 0.081639022
-0.58167982 -0.16088611 0.98867548 -0.38099977 0.3605732 0.88060516 0.081639022
0.83619952 0.55539352 1.3975149 -1.0574701 -0.51503313 1.2432884 0.081639022
-0.24645877 0.05133497 0.98212677 -0.19133501 0.48681274 0.8551625 0.081639022
-0.29984981 -0.089596502 1.0463964 -0.2054878 0.45326349 0.87248743 0.081639022
0.5184387 0.40250582 1.1273454 -0.65316039 0.023096848 1.0170585 0.081639022
0.18328986 0.32088214 0.96272582 -0.39031723 0.3818683 0.86427575 0.081639022
0.32765546 0.19390346 1.0630754 -0.34030524 0.2400375 0.96952415 0.081639022
0.32380691 0.15040827 1.072648 -0.30100447 0.2455432 0.97745585 0.081639022
-0.52056134 -0.037010461 0.95616066 -0.29262114 0.42786801 0.86333412 0.081639022
0.12001541 0.0085680559 1.0733542 -0.15750265 0.38268602 0.93159133 0.081639022
-0.62943465 -0.20844117 0.98489398 -0.44150537 0.32269725 0.88718981 0.081639022
0.080085777 0.081551366 1.0347154 -0.19361795 0.40165594 0.90894002 0.081639022
-0.55779952 -0.10426568 0.97427887 -0.33904472 0.38925111 0.87449574 0.081639022
0.22681262 0.081972882 1.0668889 -0.21916664 0.32025129 0.95353937 0.081639022
0.19876897 -0.019796716 1.0970445 -0.14718392 0.34783596 0.95687848 0.081639022
-0.034800954 0.03414109 1.0343158 -0.16646405 0.44165468 0.89128006 0.081639022
0.2198709 0.25035292 1.0063412 -0.34644249 0.333974 0.90768009 0.081639022
-0.015536 0.098697282 1.0059581 -0.19305034 0.44497097 0.8814131 0.081639022
0.044023383 0.1507239 0.99422657 -0.22641011 0.42944744 0.88161713 0.081639022
0.055940703 -0.033589456 1.0813574 -0.13608234 0.4109233 0.91978008 0.081639022
-0.48295239 0.054743096 0.91925412 -0.25068152 0.48093998 0.8416245 0.081639022
0.2742731 0.25395721 1.0263758 -0.37164333 0.28855842 0.92937219 0.081639022
0.31635481 0.19912763 1.0577716 -0.34047243 0.24964122 0.96333557 0.081639022
0.20392799 0.2166796 1.0130552 -0.31336671 0.3412441 0.91266984 0.081639022
-0.30503431 -0.019254949 1.007969 -0.203271 0.46733376 0.86413789 0.081639022
-0.077566281 0.12993632 0.97535998 -0.20180304 0.4755173 0.85933369 0.081639022
0.25775889 0.3275851 0.99479955 -0.43067458 0.31575453 0.89478439 0.081639022
0.31466138 0.088596046 1.0859764 -0.2467778 0.25912926 0.98457068 0.081639022
-0.37299263 0.089807123 0.92889464 -0.21595843 0.50841987 0.83417368 0.081639022
0.16066711 0.17957021 1.0136156 -0.27181715 0.36668849 0.90850955 0.081639022
0.53645808 -0.66998029 1.3724943 0.31397283 0.661699 0.89059198 0.081639022
0.56357038 0.15890689 1.1533242 -0.41011029 0.017037574 1.0917531 0.081639022
-0.21563032 0.00089488213 1.0167458 -0.18042956 0.47038063 0.86884558 0.081639022
0.43714881 0.16776392 1.1066262 -0.36120522 0.14334881 1.0252496 0.081639022
0.2614876 -0.032714084 1.1109748 -0.14574589 0.31618157 0.97753483 0.081639022
0.57410103 0.23350218 1.1576874 -0.49533367 -0.016445247 1.0883268 0.081639022
-0.020272667 0.062801071 1.0229175 -0.17756638 0.44060659 0.88871509 0.081639022
0.043969121 0.039799847 1.0462846 -0.169414 0.41465023 0.9076851 0.081639022
-0.34721258 -0.042303834 1.0100216 -0.21941961 0.45836177 0.86516845 0.081639022
0.19767033 0.33566362 0.9629159 -0.40960065 0.37393889 0.86372638 0.081639022
-0.357914 0.024627905 0.97084767 -0.2165757 0.47931322 0.85260236 0.081639022
0.54247737 -0.13399722 1.1707649 -0.11840444 0.16100052 1.0847125 0.081639022
-0.026761217 0.11492416 0.99515462 -0.19934918 0.45278701 0.87458074 0.081639022
0.28335741 0.084782362 1.0793289 -0.23509076 0.28216973 0.9732458 0.081639022
0.048851319 -0.63382262 1.4504588 0.016120462 0.763372 0.73880082 0.081639022
-0.077451028 -0.111224 1.0992849 -0.13035089 0.44834796 0.8975237 0.081639022
0.11675449 -0.2304796 1.1762915 -0.046896007 0.43869501 0.92801237 0.081639022
0.58234376 -0.30776903 1.2044349 0.026282541 0.24358165 1.0740759 0.081639022
0.055501632 -0.087493256 1.105489 -0.11358855 0.41682768 0.92255956 0.081639022
0.52532393 0.14064343 1.1401672 -0.37334171 0.062669903 1.0732931 0.081639022
-0.18888609 -0.0763456 1.0628932 -0.16639155 0.45773134 0.88102305 0.081639022
0.021288371 0.0084798494 1.0566711 -0.15510188 0.42186183 0.90724486 0.081639022
-0.2363264 0.019694956 1.0020838 -0.18654534 0.47649294 0.86315584 0.081639022
0.53203762 0.40087485 1.1361032 -0.65960246 0.0051235491 1.0266721 0.081639022
0.25268251 -0.17655645 1.1601098 -0.054921199 0.36697432 0.97152668 0.081639022
0.32744333 0.050025277 1.0990202 -0.21945599 0.2561028 0.99446672 0.081639022
-0.16952218 -0.0035948763 1.0284321 -0.17063454 0.46491683 0.87519282 0.081639022
0.26193732 0.32951775 0.9961406 -0.43448004 0.31217229 0.8959657 0.081639022
0.40534312 0.27120298 1.0782071 -0.44803315 0.16370142 0.98693746 0.081639022
0.38196546 0.26473439 1.0689105 -0.4302485 0.18775384 0.97674233 0.081639022
0.16167121 -0.062009126 1.1078278 -0.12070995 0.37312955 0.94842178 0.081639022
-0.41061538 -0.017621703 0.98000455 -0.2398302 0.45835593 0.85922486 0.081639022
0.004653383 0.077026218 1.020999 -0.18466501 0.4335396 0.89116478 0.081639022
0.17141744 -0.32208577 1.222332 0.0040582432 0.46918559 0.92336631 0.081639022
-0.14129962 -0.047763892 1.056794 -0.15759341 0.45616093 0.88459063 0.081639022
0.24311155 -0.01738037 1.1031169 -0.15366136 0.32337242 0.97063118 0.081639022
-0.058963984 0.16833921 0.9584505 -0.21947813 0.48136699 0.85044366 0.081639022
-0.095874056 -0.026039239 1.0536244 -0.15352505 0.45097741 0.88909006 0.081639022
0.25656629 0.1001817 1.0681199 -0.23978315 0.29941207 0.96085507 0.081639022
-0.12841712 0.069065772 0.99759072 -0.18148997 0.47304422 0.86683369 0.081639022
0.037101518 0.19032167 0.97260094 -0.24750373 0.44318378 0.86668885 0.081639022
-0.25034139 -0.084919758 1.0550461 -0.18634672 0.45704606 0.87564653 0.081639022
-0.32605597 0.12684664 0.91773456 -0.20800865 0.52659893 0.82486784 0.081639022
-0.55851161 -0.61788917 1.1894993 -0.65520346 0.38836497 0.78293884 0.081639022
0.20354119 0.10199312 1.0544863 -0.22804278 0.33425391 0.94200087 0.081639022
-0.069141746 0.10530255 0.99070048 -0.19283426 0.46565047 0.8682552 0.081639022
-0.12069713 0.091357663 0.98699033 -0.18756904 0.47714627 0.86243981 0.081639022
0.097609177 0.27343473 0.95004302 -0.3188552 0.43291155 0.85246551 0.081639022
-0.052014746 0.23999117 0.91810524 -0.25473186 0.50858587 0.82276964 0.081639022
-0.38666701 -0.64312935 1.3328478 -0.45983988 0.56814963 0.72492409 0.081639022
0.063776299 -0.081612229 1.1038698 -0.11514962 0.4134247 0.92428035 0.081639022
-0.17391016 0.092036933 0.97491676 -0.18974857 0.4897767 0.85372984 0.081639022
-0.010519572 -0.0015407029 1.0560025 -0.15221031 0.43174785 0.90176702 0.081639022
0.37931505 -0.17294313 1.1660501 -0.059829067 0.29753193 1.0144928 0.081639022
0.041309644 -0.14092299 1.1284378 -0.095738836 0.43030652 0.91914338 0.081639022
-0.11167777 0.12367737 0.97091711 -0.19788668 0.48458815 0.85467565 0.081639022
-0.31458747 -0.61682278 1.3521385 -0.35924873 0.60294932 0.7319864 0.081639022
0.23525871 0.033293258 1.084908 -0.18675981 0.31964347 0.9633708 0.081639022
0.32793358 -0.0092646563 1.1147079 -0.17356575 0.26907507 0.99954492 0.081639022
0.21579477 0.093228258 1.0604873 -0.22466983 0.32671511 0.94780338 0.081639022
-0.32533959 0.12982288 0.91601127 -0.20804708 0.52818811 0.82384062 0.081639022
-0.028664546 0.17026024 0.96526027 -0.22460897 0.46915582 0.8567555 0.081639022
0.11831836 0.10683371 1.032343 -0.21391134 0.38426229 0.91414702 0.081639022
0.19852664 0.11016453 1.0503399 -0.23261194 0.33738062 0.93867052 0.081639022
-0.26882562 0.16306415 0.90861207 -0.20719999 0.53970301 0.81672573 0.081639022
0.011895002 0.25790888 0.92802471 -0.28112343 0.48223317 0.83192748 0.081639022
0.2392274 0.15868312 1.0446773 -0.27966845 0.31040865 0.94220281 0.081639022
0.062459134 0.28278252 0.9319371 -0.31318161 0.46097937 0.83617431 0.081639022
0.23111686 0.28200826 0.99921721 -0.37781799 0.33034712 0.90085655 0.081639022
0.2106217 0.044556968 1.0762306 -0.19009098 0.33299801 0.95386231 0.081639022
-0.070986159 0.21995021 0.92475593 -0.24101715 0.50793904 0.82717937 0.081639022
0.37600443 -0.11053348 1.1483381 -0.10541139 0.27148959 1.0178603 0.081639022
0.31503847 -0.033860572 1.1194174 -0.15285793 0.28406066 0.99599814 0.081639022
-0.08880049 -0.039049506 1.0614012 -0.14919098 0.44894579 0.89165175 0.081639022
-0.13529107 0.089106619 0.98506647 -0.18728587 0.48018348 0.86058056 0.081639022
0.15066771 0.1370153 1.0279398 -0.23984165 0.36823004 0.91684115 0.081639022
-0.12312482 -0.030796032 1.0512862 -0.15707944 0.45513216 0.88539815 0.081639022
-0.06820704 0.17900473 0.94993109 -0.22293958 0.48913008 0.84447193 0.081639022
0.42428032 -0.31949288 1.2135438 0.043498259 0.35870871 1.0054889 0.081639022
-0.18229032 0.11004928 0.96256644 -0.19426157 0.49796802 0.84717792 0.081639022
-0.26804185 0.16680628 0.90633172 -0.20774551 0.54170805 0.81528491 0.081639022
-0.066303067 -0.026987046 1.059116 -0.1490161 0.44503894 0.8942005 0.081639022
-0.092540018 0.25904745 0.89313358 -0.25495571 0.5384801 0.80359232 0.081639022
0.034087684 0.23572119 0.94779563 -0.27381632 0.46004373 0.84824288 0.081639022
0.13150083 0.10315434 1.0369481 -0.21400103 0.37681857 0.91887981 0.081639022
-0.030547448 0.22808704 0.93188429 -0.25338933 0.49228275 0.83358377 0.081639022
0.17220178 -0.049930722 1.1045033 -0.12768301 0.36610028 0.95088392 0.081639022
-0.20872915 0.20428973 0.89656138 -0.21716987 0.55004275 0.80721027 0.081639022
0.22001231 0.093553208 1.0613775 -0.22587125 0.32401425 0.94918007 0.081639022
-0.38370728 -0.046046663 1.0024277 -0.23414892 0.45289946 0.8643688 0.081639022
-0.31660518 0.069762371 0.95507187 -0.20506647 0.49813396 0.84392345 0.081639022
-0.014948996 0.15534569 0.97683138 -0.21940598 0.45846573 0.86510599 0.081639022
0.12119186 -0.059498318 1.1016037 -0.12208989 0.38964689 0.93745977 0.081639022
0.063385911 0.06876041 1.0369401 -0.18504767 0.40832573 0.9071731 0.081639022
-0.34500763 0.10797145 0.92485642 -0.21031012 0.51750708 0.83000982 0.081639022
-0.22125958 -0.59943432 1.3757869 -0.24748632 0.64412057 0.73823041 0.081639022
-0.28521943 -0.38558397 1.2064358 -0.24727345 0.48504281 0.83999449 0.081639022
0.23150827 0.21117009 1.024523 -0.31874174 0.31947336 0.92502224 0.081639022
0.16912408 0.32063061 0.95647305 -0.38387081 0.39396092 0.85842305 0.081639022
0.23366766 0.18129994 1.035432 -0.2956138 0.31544286 0.93433809 0.081639022
0.18603215 -0.26890263 1.1965995 -0.015250859 0.43563816 0.93918759 0.081639022
0.13993181 0.26106492 0.97179574 -0.32483932 0.39833635 0.87282652 0.081639022
0.17981908 0.26876891 0.98364025 -0.34581918 0.36989412 0.88489717 0.081639022
0.24380766 0.15625241 1.0468295 -0.27919844 0.30702335 0.94450408 0.081639022
-0.24813643 -0.10487437 1.0659001 -0.1857775 0.45528665 0.87693721 0.081639022
-0.2840786 0.0050868918 0.99954104 -0.19695595 0.47433418 0.86150247 0.081639022
-0.065660931 0.17407984 0.95343953 -0.22112726 0.4862051 0.84687001 0.081639022
0.35694996 -0.11405458 1.1473722 -0.10034628 0.28501177 1.0106912 0.081639022
0.22409134 0.085295364 1.065141 -0.22092061 0.32179415 0.95204192 0.081639022
0.22321555 -0.16494073 1.1538583 -0.062884331 0.37560469 0.96368879 0.081639022
0.36671495 -0.10660346 1.1463085 -0.10707473 0.27586025 1.0145813 0.081639022
0.032929696 -0.046125982 1.0836688 -0.13216576 0.41929555 0.91556877 0.081639022
-0.26491416 0.024461444 0.99314028 -0.19293873 0.47952837 0.85935223 0.081639022
-0.036086556 0.21274643 0.93923229 -0.24428529 0.48844415 0.83869064 0.081639022
-0.11344974 -0.30051184 1.1934402 -0.12126578 0.48992303 0.87359101 0.081639022
-0.20631886 0.062167238 0.98482877 -0.18688138 0.48566708 0.85719264 0.081639022
0.28952906 -0.47874895 1.3017535 0.11358925 0.55224746 0.90217847 0.081639022
0.33342978 0.29286161 1.0408447 -0.4342646 0.23694068 0.94412583 0.081639022
0.44259465 0.14815725 1.1112145 -0.34472635 0.14187385 1.0309942 0.081639022
-0.0021733805 0.2350135 0.93663079 -0.26391059 0.48032516 0.83816284 0.081639022
-0.21531747 -0.12213693 1.081555 -0.17316487 0.45576972 0.8803035 0.081639022
0.13523428 -0.57467383 1.3896071 0.07100568 0.68838918 0.80273175 0.081639022
0.17704077 0.20079564 1.0102227 -0.29222873 0.3585414 0.90777057 0.081639022
0.04369634 -0.063463718 1.0930808 -0.12435912 0.41744444 0.91902691 0.081639022
0.31031987 -0.73204082 1.5133482 0.2510058 0.88182735 0.73151129 0.081639022
-0.32750207 0.1292958 0.91580272 -0.20827754 0.52806711 0.82385087 0.081639022
0.50303644 -0.15519124 1.1705323 -0.091085397 0.20369285 1.0653787 0.081639022
0.065047249 0.070678473 1.0364174 -0.18619873 0.40773198 0.90721726 0.081639022
0.039337106 -0.14535826 1.130314 -0.094589934 0.43174455 0.91855878 0.081639022
0.37077361 0.12686549 1.0922618 -0.29728696 0.20941679 1.0016354 0.081639022
0.11406361 0.051769152 1.0544276 -0.18093075 0.38420466 0.92379385 0.081639022
-0.45096159 -0.013567325 0.96622902 -0.25491399 0.45338711 0.85800642 0.081639022
0.41796234 -0.31759727 1.2131333 0.041953806 0.36100742 1.0035692 0.081639022
0.23023595 0.23834965 1.0145745 -0.34052482 0.32373565 0.91595 0.081639022
-0.18068749 0.041359115 1.0019051 -0.18008234 0.47599125 0.86535978 0.081639022
-0.13279387 0.20463754 0.91692674 -0.22487177 0.52565336 0.82055873 0.081639022
0.25452891 0.15119828 1.0516038 -0.27857798 0.29912862 0.94973212 0.081639022
0.23351587 0.022017986 1.0883321 -0.17874265 0.32220873 0.96406686 0.081639022
0.23514435 -0.035965163 1.1081843 -0.14055598 0.33165607 0.96915394 0.081639022
0.30779362 0.20109491 1.0542281 -0.33884466 0.25693059 0.9591496 0.081639022
0.35780603 -0.24570905 1.1886712 -0.0086983787 0.34848586 0.99681538 0.081639022
-0.14278606 -0.14258718 1.1051666 -0.14526004 0.45615277 0.88818961 0.081639022
0.064168394 0.2592372 0.94529849 -0.29778549 0.45032746 0.84747046 0.081639022
-0.027490795 0.22827591 0.93270314 -0.254177 0.49081227 0.83429438 0.081639022
0.013698852 0.1951917 0.96337563 -0.24521782 0.45703942 0.85849673 0.081639022
-0.030947737 0.23262416 0.92907304 -0.25569627 0.49450523 0.8314907 0.081639022
-0.32644078 -0.10397354 1.0473721 -0.21824925 0.44814086 0.87204397 0.081639022
0.38500509 -0.12490347 1.1530561 -0.095834039 0.27175826 1.0204792 0.081639022
-0.42734241 -0.050320216 0.99234533 -0.25343871 0.44434026 0.86422014 0.081639022
0.16836214 0.12702072 1.0364569 -0.23721199 0.35669932 0.92497921 0.081639022
0.13923578 0.312013 0.94747722 -0.36410269 0.41564611 0.85031933 0.081639022
0.16612612 0.12434696 1.0369191 -0.23487997 0.35792252 0.92487669 0.081639022
-0.16240478 -0.24069899 1.15319 -0.14833032 0.46977928 0.87858325 0.081639022
0.13884307 0.095860913 1.0416089 -0.21076821 0.37239835 0.92264777 0.081639022
-0.084142558 -0.22114366 1.1543568 -0.11393145 0.46649298 0.89070749 0.081639022
-0.49743128 -0.85849756 1.4296906 -0.77724886 0.65199071 0.57883477 0.081639022
0.19561003 -0.70379096 1.5115308 0.15526335 0.86280549 0.71577466 0.081639022
0.21898304 0.32237795 0.97843373 -0.40773413 0.35062379 0.87917614 0.081639022
-0.20605792 0.14821501 0.93380821 -0.20345163 0.51943076 0.83077848 0.081639022
-0.20428556 0.10189409 0.96233219 -0.19369422 0.49920595 0.84655178 0.081639022
-0.4571608 -0.050934352 0.98368192 -0.26703188 0.43800393 0.86431026 0.081639022
0.42994639 -0.12827875 1.1581707 -0.099898294 0.24314295 1.0375894 0.081639022
0.20144767 -0.71431434 1.5231106 0.16378629 0.88010037 0.70720106 0.081639022
-0.20195816 -0.17859 1.1133907 -0.16731109 0.45806059 0.8805446 0.081639022
0.27987844 0.18765174 1.048429 -0.31681401 0.27988735 0.95089221 0.081639022
0.029876227 0.1934526 0.96892035 -0.24771905 0.44799092 0.86355281 0.081639022
0.38980302 0.043454818 1.1144948 -0.23141687 0.21075772 1.0199717 0.081639022
0.19014131 0.16831477 1.0267559 -0.27217168 0.34557128 0.92190695 0.081639022
0.24618441 0.2725378 1.0088633 -0.37603021 0.31556252 0.9108296 0.081639022
-0.062422965 0.24763291 0.91007763 -0.25623211 0.5176 0.81656957 0.081639022
-0.42859763 -0.04435714 0.9889043 -0.25263429 0.44606981 0.86334878 0.081639022
-0.4223167 -0.014425947 0.97500569 -0.24373955 0.4578118 0.85843366 0.081639022
0.22345831 0.30628845 0.98677737 -0.39559168 0.34243074 0.88795227 0.081639022
-0.26497865 0.096180938 0.95165241 -0.19848098 0.5057857 0.84095043 0.081639022
-0.47248188 -0.092119344 0.99918628 -0.2866945 0.42081884 0.86956775 0.081639022
0.35898852 -0.48033938 1.2931482 0.13671483 0.52615714 0.92559701 0.081639022
0.46908268 -0.1506086 1.1667213 -0.088541694 0.22643007 1.0515834 0.081639022
-0.14898425 -0.53934228 1.3449395 -0.16130862 0.62111586 0.77804863 0.081639022
-0.7105943 -1.2453512 2.3149016 -1.757025 1.6273144 -0.33020285 0.081639022
-0.48979697 -0.10702793 1.0004693 -0.3010661 0.4113667 0.87142307 0.081639022
0.32107961 0.087084822 1.0879786 -0.24742185 0.25457111 0.98729718 0.081639022
0.21277846 -0.013913633 1.097123 -0.15227641 0.33947644 0.96073902 0.081639022
-0.20486112 0.098435737 0.9642365 -0.19307317 0.49799097 0.8475095 0.081639022
-0.29343429 0.10931881 0.93682384 -0.20307215 0.51473492 0.83389121 0.081639022
-0.28295991 -0.4828409 1.2669094 -0.2736662 0.52926773 0.80403006 0.081639022
-0.23075323 -0.47485724 1.2776593 -0.22327073 0.54659069 0.80763954 0.081639022
0.41591266 -0.90084082 1.7301096 0.44369093 1.2378871 0.56001925 0.081639022
-0.069760166 -0.14727816 1.1184105 -0.1208946 0.45128253 0.89840293 0.081639022
-0.017339148 0.18987347 0.95752871 -0.2362476 0.47065449 0.85240608 0.081639022
-0.50316501 -0.085793547 0.98578441 -0.30087313 0.41403249 0.869775 0.081639022
0.012151502 0.2612913 0.92614663 -0.28325054 0.48360026 0.83043367 0.081639022
-0.40975076 -0.14416234 1.0444429 -0.26795545 0.42559031 0.87197745 0.081639022
-0.13597117 0.088720262 0.98513407 -0.18720107 0.48023495 0.8605724 0.081639022
-0.50715035 -0.26977712 1.0664505 -0.38069856 0.37482062 0.87158424 0.081639022
0.027456012 0.18810509 0.97100264 -0.24415384 0.44765002 0.86480957 0.081639022
-0.035962474 0.24304458 0.92124623 -0.26005793 0.50191289 0.82548392 0.081639022
0.35787994 -0.19500795 1.1717243 -0.043026477 0.32114142 1.0042946 0.081639022
-0.3373962 -0.32405284 1.1566117 -0.27100727 0.44995821 0.85550928 0.081639022
-0.26204193 0.15875024 0.9131636 -0.20635435 0.53609556 0.81927842 0.081639022
0.1261183 0.25710002 0.96854085 -0.31697327 0.40722504 0.86943585 0.081639022
0.09868592 -0.33973032 1.2313224 -0.014535159 0.49602187 0.90079141 0.081639022
-0.33589241 0.071855187 0.94909716 -0.20892276 0.499522 0.84191239 0.081639022
0.12544338 -0.35014039 1.2372795 -0.0008831321 0.49710256 0.90407848 0.081639022
-0.21231271 0.039057244 0.99650913 -0.1843233 0.47956827 0.86183715 0.081639022
0.19952664 -0.2640993 1.1946092 -0.014747363 0.42866066 0.9437952 0.081639022
0.034881692 0.157153 0.98870122 -0.22833972 0.43550253 0.87718374 0.081639022
0.16525371 -0.30469778 1.2135853 -0.004841778 0.4609656 0.92602819 0.081639022
0.26708606 -0.34972909 1.2336729 0.041832969 0.4554159 0.94317651 0.081639022
-0.47853786 -0.31405202 1.0984138 -0.37903485 0.38787758 0.86372137 0.081639022
-0.48546469 -0.072556309 0.98539108 -0.28714451 0.42357409 0.86767513 0.081639022
-0.17714544 0.22599386 0.89038193 -0.2267867 0.55327487 0.8023417 0.081639022
0.24581306 -0.41190174 1.2671304 0.06641826 0.50881505 0.91620094 0.081639022
0.36432987 -0.6688512 1.4289373 0.24693556 0.75437891 0.81180602 0.081639022
0.09363655 -0.71434402 1.5415843 0.070155233 0.88903201 0.67420834 0.081639022
0.28586945 0.1238582 1.068728 -0.26653707 0.27689707 0.96745378 0.081639022
-0.033646613 0.25628698 0.91386825 -0.267784 0.5071615 0.81987709 0.081639022
0.38609645 0.011084893 1.1205715 -0.20327674 0.22228555 1.0208012 0.081639022
-0.33138764 0.022253446 0.97879761 -0.20928954 0.47944787 0.85463935 0.081639022
-0.12913804 -0.083185226 1.0770497 -0.148837 0.4533729 0.88892454 0.081639022
-0.58403158 -0.81019902 1.2738733 -0.86079729 0.46248907 0.67564297 0.081639022
0.2200021 -0.9719249 2.2965415 0.40335849 1.9166172 0.11433931 0.081639022
-0.10699528 -0.19641343 1.1383848 -0.12611528 0.46195936 0.89005578 0.081639022
-0.34751794 -0.043128882 1.0103811 -0.21962643 0.45811322 0.8652671 0.081639022
0.16254343 -0.36278537 1.2438753 0.017246401 0.49681032 0.90954798 0.081639022
-0.20648076 0.021779135 1.0072798 -0.181053 0.47439042 0.86610037 0.081639022
-0.17314956 -0.15689234 1.1073951 -0.15556623 0.45750913 0.88431942 0.081639022
0.13023521 0.21102637 0.99089468 -0.28515086 0.39249209 0.88812751 0.081639022
-0.39786395 -0.24607839 1.0976126 -0.29067519 0.42123848 0.86813956 0.081639022
0.044271115 -0.33527714 1.2272422 -0.038430139 0.50141329 0.89038199 0.081639022
0.0025698587 -0.1082793 1.1086023 -0.1137453 0.43369433 0.91173071 0.081639022
-0.51488924 -0.30273321 1.0770476 -0.40342632 0.36904198 0.86865616 0.081639022
-0.2108032 0.16280352 0.92340475 -0.20675878 0.52769798 0.82452941 0.081639022
0.035894129 -0.16723019 1.1403313 -0.088043056 0.43766302 0.9166826 0.081639022
-0.26653641 0.21180955 0.87570131 -0.21547897 0.56954461 0.79523492 0.081639022
-0.22654927 0.19535714 0.8978883 -0.21384141 0.54949152 0.80853254 0.081639022
0.32223901 -0.39376062 1.2516347 0.07797996 0.46575195 0.94710106 0.081639022
0.032224376 0.012353496 1.0567566 -0.15667406 0.41811964 0.90917921 0.081639022
0.18726571 0.19832793 1.0144762 -0.2936438 0.35093826 0.91221911 0.081639022
-0.1928606 -0.57323933 1.3620751 -0.21062911 0.63377649 0.75558317 0.081639022
0.0065738652 -0.37103909 1.2461878 -0.049535993 0.52409774 0.87264317 0.081639022
0.17706579 -0.32524526 1.2239034 0.0070165545 0.46947575 0.92404282 0.081639022
-0.50172091 -0.24549799 1.058275 -0.36507466 0.37954155 0.87311858 0.081639022
0.23448609 -0.34376407 1.2320207 0.031002719 0.46316868 0.93506426 0.081639022
-0.41355851 -0.042892311 0.99248666 -0.24589632 0.44922474 0.86329508 0.081639022
-0.25935498 0.0083911559 1.0032811 -0.19088134 0.47469819 0.86303979 0.081639022
-0.0096952189 0.055087298 1.0288044 -0.17459367 0.43591467 0.89258093 0.081639022
-0.12532863 0.13315494 0.96229255 -0.20056307 0.49199489 0.84916049 0.081639022
-0.51216483 -0.56643224 1.199011 -0.56108046 0.41360751 0.79422659 0.081639022
0.39273924 -0.29133871 1.2045382 0.022941405 0.35736221 1.0003598 0.081639022
0.32429463 -0.22447082 1.1806107 -0.023286575 0.35451502 0.98871005 0.081639022
0.35986331 -0.47944209 1.2925098 0.13643751 0.52489531 0.92632294 0.081639022
0.15394111 0.1930895 1.0060434 -0.27950931 0.37321851 0.90209335 0.081639022
0.1063639 -0.15258074 1.1399407 -0.080434285 0.41513631 0.93330151 0.081639022
0.03338407 0.15693326 0.98842084 -0.22795264 0.43619552 0.87685347 0.081639022
0.44001043 -0.24584639 1.1894443 -0.010300106 0.30022186 1.027205 0.081639022
0.17798512 0.060826849 1.0637234 -0.19525333 0.35060596 0.9411009 0.081639022
-0.045767788 -0.35641107 1.2335482 -0.079992652 0.51671821 0.86848658 0.081639022
0.17105463 -0.25733939 1.190926 -0.023626447 0.43472496 0.9373309 0.081639022
-0.30173612 -0.20749411 1.1064084 -0.2207337 0.44662762 0.87228745 0.081639022
-0.2697908 -0.061065443 1.0383173 -0.19288604 0.45962718 0.87209088 0.081639022
-0.29185417 0.10548995 0.9395647 -0.20259744 0.51275146 0.83529758 0.081639022
-0.33904094 0.078004248 0.94465071 -0.20947127 0.50239986 0.83991265 0.081639022
-0.21102908 0.030360967 1.001603 -0.18296161 0.47706053 0.86383718 0.081639022
0.29125035 0.080792136 1.0823723 -0.2340958 0.27707437 0.97679329 0.081639022
0.35190681 -0.30741563 1.2117217 0.030981954 0.38955694 0.98211986 0.081639022
0.21124144 0.10321281 1.0559298 -0.2306964 0.32934731 0.94436455 0.081639022
-0.53033072 -0.18668522 1.0211005 -0.35851377 0.37632197 0.87708867 0.081639022
0.13537796 0.096033528 1.040748 -0.21026222 0.37431261 0.92157137 0.081639022
0.15223069 0.089496262 1.0471818 -0.20915234 0.36474979 0.9280085 0.081639022
-0.18927941 -0.078026287 1.063692 -0.16637085 0.45762977 0.88109398 0.081639022
-0.3051455 -0.018122841 1.0073303 -0.20326447 0.46763048 0.86395007 0.081639022
-0.35234025 0.021815348 0.9738372 -0.21518482 0.47851378 0.85351878 0.081639022
-0.25190899 -0.10180799 1.0635052 -0.1871713 0.45533904 0.87649763 0.081639022
-0.20483603 -0.1892495 1.1183934 -0.16875008 0.45879176 0.8796578 0.081639022
-0.18966834 0.20617731 0.90042698 -0.21925448 0.54555786 0.80947012 0.081639022
0.12369139 0.21583337 0.9866401 -0.28654605 0.39792955 0.88424462 0.081639022
0.10507739 -0.1600091 1.1431472 -0.077513203 0.41764161 0.93255097 0.081639022
-0.35864645 0.050682586 0.95580024 -0.21493641 0.48998636 0.84625649 0.081639022
-0.2002199 0.23116158 0.88023597 -0.22561048 0.56416523 0.79572195 0.081639022
0.4329417 -0.53147566 1.3097045 0.18810447 0.54380965 0.92928541 0.081639022
0.17848873 0.20003349 1.010989 -0.29212016 0.35740694 0.90852749 0.081639022
0.001151751 0.15069522 0.98333645 -0.21943684 0.44995701 0.8705368 0.081639022
0.30104122 -0.22861446 1.1816032 -0.021617226 0.36829478 0.98038673 0.081639022
0.208929 -0.013918143 1.0965149 -0.1518559 0.34153396 0.95954615 0.081639022
0.11330503 -0.048078161 1.0957888 -0.12788326 0.39110938 0.93483669 0.081639022
0.42525604 -0.37552789 1.2347748 0.082513429 0.40052745 0.9901216 0.081639022
0.16040994 0.085691176 1.0505013 -0.2082006 0.36008736 0.93126661 0.081639022
-0.025126463 0.028135829 1.0390649 -0.16395876 0.43808469 0.89429241 0.081639022
0.40744069 -0.42681441 1.258948 0.11451502 0.45324451 0.96574306 0.081639022
0.29250774 -0.36399853 1.2392478 0.05502826 0.455538 0.94694334 0.081639022
0.23055242 0.014909158 1.0901771 -0.17346241 0.32497299 0.96383816 0.081639022
-0.17025372 0.17750375 0.92431247 -0.21221437 0.5243395 0.82508689 0.081639022
-0.53299522 -0.20153894 1.0263345 -0.36727273 0.37208742 0.8772437 0.081639022
0.17667772 -0.071186215 1.1132739 -0.1158716 0.36832067 0.95290601 0.081639022
-0.25226128 0.19079556 0.89422679 -0.21192876 0.55281901 0.80696249 0.081639022
0.38973603 -0.13074395 1.1550442 -0.092055671 0.27126712 1.0218941 0.081639022
0.071096957 -0.2098002 1.1636552 -0.065469392 0.44235578 0.92026001 0.081639022
-0.25168422 0.060140286 0.97591215 -0.19303665 0.49030542 0.85243374 0.081639022
-0.55147183 -0.76522356 1.2817955 -0.77155358 0.47732645 0.6921612 0.081639022
0.069223918 -0.20608555 1.1617362 -0.067207381 0.44153294 0.92027968 0.081639022
0.30833867 -0.87041467 1.7385889 0.33637106 1.2139534 0.5440495 0.081639022
0.21003859 0.19021681 1.0248041 -0.29481938 0.33356774 0.92298192 0.081639022
-0.27508074 -0.10620446 1.0607116 -0.19653825 0.4533976 0.87500942 0.081639022
0.032891259 0.0067948829 1.0594246 -0.15424111 0.4177998 0.91009259 0.081639022
-0.42910177 -0.26525405 1.0958189 -0.31960714 0.40967709 0.86710072 0.081639022
0.10842057 -0.29823986 1.2094134 -0.024482561 0.47160193 0.91350514 0.081639022
0.086330645 -0.57769477 1.3955724 0.037124719 0.69497377 0.78864968 0.081639022
-0.40819016 -0.16852461 1.056771 -0.27378106 0.42256039 0.87221712 0.081639022
0.011522068 0.070272602 1.025676 -0.18199207 0.42998323 0.89421731 0.081639022
-0.32911631 0.018321633 0.98155427 -0.20883803 0.47811404 0.85562366 0.081639022
-0.11816204 0.10038307 0.98253697 -0.19028448 0.47910115 0.86039877 0.081639022
-0.10371838 -0.3050299 1.1972995 -0.11577716 0.49210033 0.87379831 0.081639022
-0.010282378 -0.30715132 1.2082226 -0.068781219 0.49240658 0.88729638 0.081639022
-0.35929084 0.057058711 0.95193046 -0.21471377 0.4927794 0.84453571 0.081639022
-0.52669328 -0.17248014 1.0164351 -0.34965134 0.38102719 0.87666291 0.081639022
0.082021296 0.13075821 1.0131763 -0.2217727 0.40627432 0.89778352 0.081639022
-0.030476255 -0.2748819 1.1888456 -0.083354801 0.48044455 0.89069748 0.081639022
-0.40582985 -0.20408329 1.0746968 -0.28278312 0.4199051 0.87129164 0.081639022
-0.029445136 0.033032034 1.0358618 -0.16591272 0.43990031 0.89256233 0.081639022
-0.17234592 -0.52621657 1.3295404 -0.18079711 0.60270554 0.78414011 0.081639022
-0.0065024723 -0.41285893 1.2714059 -0.050855216 0.54994851 0.85573179 0.081639022
-0.47705877 -0.72649533 1.3288314 -0.63511968 0.54331231 0.68972951 0.081639022
-0.38632885 0.14343064 0.89135128 -0.21586843 0.53976047 0.81416315 0.081639022
0.062429421 -0.51509768 1.3448137 0.0085301269 0.63049096 0.8215431 0.081639022
0.040181566 0.0047055976 1.0616102 -0.15327433 0.4151887 0.91204363 0.081639022
0.2103935 -0.1522937 1.1480269 -0.070515737 0.3765409 0.96086657 0.081639022
-0.33970878 0.08247298 0.94180316 -0.20954286 0.50451952 0.83853668 0.081639022
0.22119886 0.038693629 1.0803473 -0.1879731 0.32737988 0.95807123 0.081639022
0.29211673 -0.13596413 1.1483296 -0.079998747 0.33113518 0.98713231 0.081639022
0.024872076 -0.93040723 2.1266091 0.06982971 1.6160481 0.20931526 0.081639022
0.36863884 -0.52440262 1.3178151 0.16527878 0.56713766 0.90772027 0.081639022
0.0012978241 -0.10795145 1.1082873 -0.11407942 0.43393618 0.9114787 0.081639022
-0.5704968 -0.92179012 1.3881916 -0.95580673 0.59567654 0.56280893 0.081639022
-0.24205711 -0.41656202 1.2369894 -0.21959354 0.51228338 0.83064443 0.081639022
0.04336258 -0.00041338932 1.0644658 -0.1509826 0.41406649 0.9134289 0.081639022
0.17374912 0.031087095 1.0740131 -0.17581134 0.35471073 0.94414169 0.081639022
0.095263541 -0.12008749 1.1245164 -0.095683992 0.41047701 0.93183678 0.081639022
0.25815275 -0.2036169 1.1707278 -0.03896872 0.37622455 0.9702611 0.081639022
-0.44686434 -0.035541147 0.97893578 -0.25847235 0.44566926 0.86190373 0.081639022
0.3398191 -0.41363764 1.2599137 0.093243979 0.47429305 0.94608819 0.081639022
-0.30998096 -0.0084604798 1.0009387 -0.20439015 0.47014493 0.86201453 0.081639022
-0.26818013 0.01054947 1.0001274 -0.19308636 0.4755877 0.86182863 0.081639022
-0.49721488 -0.7261408 1.3097053 -0.66248798 0.51873463 0.69746792 0.081639022
-0.088846639 -0.040958956 1.0623548 -0.14873122 0.44887221 0.89183277 0.081639022
0.07641653 0.11784223 1.017666 -0.21336101 0.40731624 0.89956844 0.081639022
-0.18721241 0.051365022 0.9950003 -0.18270507 0.47964859 0.8622573 0.081639022
0.12987351 -0.1728074 1.1507705 -0.068292499 0.41380402 0.93769121 0.081639022
-0.42789909 0.0086206812 0.96098894 -0.24139091 0.4662458 0.85372597 0.081639022
-0.13007283 0.082860358 0.9896636 -0.18536678 0.47711748 0.86309993 0.081639022
-0.4561843 -0.11009412 1.0132129 -0.28362724 0.42029411 0.87079698 0.081639022
-0.41916174 -0.10079194 1.0202492 -0.26167461 0.43191236 0.86976576 0.081639022
-0.23345926 -0.1242244 1.0789912 -0.18028466 0.45498025 0.87873363 0.081639022
0.18120322 -0.036522932 1.1006387 -0.13582142 0.35944721 0.95276594 0.081639022
-0.05107538 0.036776815 1.0299402 -0.16793175 0.44677326 0.88757998 0.081639022
-0.39595962 -0.28633389 1.1178904 -0.3028093 0.42341951 0.86320949 0.081639022
-0.47906038 -0.054971598 0.97880512 -0.27849028 0.43144321 0.86516589 0.081639022
-0.072345547 -0.42871502 1.2762526 -0.092198133 0.55635333 0.83959043 0.081639022
0.34308961 -0.038331412 1.1249535 -0.15448025 0.26716191 1.0063292 0.081639022
0.31231743 -0.28295541 1.2028037 0.01209578 0.39329737 0.9742254 0.081639022
0.057099123 -0.25357699 1.1843303 -0.055400252 0.46145913 0.91098076 0.081639022
-0.48377609 -0.6701017 1.2818906 -0.6011197 0.49407896 0.73111254 0.081639022
-0.0084723011 -0.21320707 1.1587113 -0.087483734 0.45786124 0.90393239 0.081639022
-0.18936947 0.05570988 0.99211895 -0.18374103 0.4812091 0.8609578 0.081639022
0.1279151 0.039013721 1.0623314 -0.17515108 0.37763152 0.92968029 0.081639022
-0.26415431 -0.00038580492 1.0070313 -0.19170614 0.4725202 0.86419189 0.081639022
-0.34592488 -0.051538453 1.0152252 -0.21998253 0.45612934 0.86643171 0.081639022
0.12460121 -0.81047624 1.690218 0.12732223 1.0945807 0.55945379 0.081639022
-0.43682787 0.067770489 0.92498416 -0.23394807 0.49361873 0.83839452 0.081639022
-0.041407552 -0.21429671 1.1558697 -0.098596811 0.46191001 0.89810574 0.081639022
0.13143931 -0.060713243 1.103434 -0.12133732 0.38572028 0.94018942 0.081639022
0.084188953 -0.76317501 1.6134499 0.071318686 0.98295677 0.61449909 0.081639022
0.043333121 0.12727536 1.0053742 -0.21348563 0.42505911 0.88818872 0.081639022
0.12125006 -0.055123635 1.0997946 -0.12427802 0.3889485 0.93726867 0.081639022
0.74392301 -1.074922 3.3883057 1.763193 3.6993408 -0.62916386 0.081639022
0.084169328 -0.10555592 1.1169181 -0.10309281 0.41099849 0.92934459 0.081639022
-0.52790964 -0.1762373 1.0175782 -0.35213879 0.37966129 0.87681133 0.081639022
-0.51754928 -0.73346424 1.2952677 -0.69646573 0.49903867 0.70015943 0.081639022
0.39459124 -0.90632784 1.7598268 0.43456706 1.2743145 0.53407186 0.081639022
0.16706227 -0.17143562 1.1527853 -0.064105719 0.4005082 0.94741148 0.081639022
0.0050437185 -0.03894785 1.0762217 -0.13720404 0.4271971 0.90904903 0.081639022
-0.27147156 0.013831026 0.99757403 -0.19399314 0.47662279 0.86090267 0.081639022
-0.26616219 -0.0001292431 1.0064449 -0.19222505 0.47263354 0.86396825 0.081639022
-0.315245 -7.5211479e-05 0.99509585 -0.20564042 0.47247174 0.86016268 0.081639022
-0.2768065 -0.20609944 1.111792 -0.20659184 0.45120519 0.87348163 0.081639022
0.037829131 -0.054773655 1.0883178 -0.12833159 0.41844055 0.91723257 0.081639022
-0.100027 0.11202482 0.98011667 -0.19426727 0.47735345 0.86035562 0.081639022
-0.15987507 0.16739261 0.93331188 -0.20978019 0.51641524 0.83086234 0.081639022
-0.18437341 0.11054856 0.96179467 -0.19445692 0.49860004 0.84671694 0.081639022
0.532417 -1.0597095 2.1866601 0.78662837 1.9502639 0.20450665 0.081639022
0.41671878 -0.58312565 1.3460461 0.21670604 0.61251992 0.89369142 0.081639022
0.03172233 -0.045844674 1.0833654 -0.13236851 0.41964918 0.91528356 0.081639022
0.68929625 -1.1316096 2.2116714 1.0054157 2.0906522 0.17850409 0.081639022
-0.30742925 -0.15413821 1.0777507 -0.21581648 0.44596583 0.87414336 0.081639022
-0.41128346 -0.16630046 1.0547212 -0.27497023 0.42196935 0.87224847 0.081639022
0.11210426 0.11745548 1.0263669 -0.21927667 0.38856831 0.90983069 0.081639022
-0.35210374 -0.78485918 1.4984639 -0.49942538 0.75660509 0.59290558 0.081639022
0.24581681 -0.11009569 1.135268 -0.094671942 0.34593534 0.97339469 0.081639022
0.10038739 -0.10585686 1.1188301 -0.10136508 0.40572473 0.93321967 0.081639022
0.023411104 -0.13496546 1.1237123 -0.10119418 0.43333134 0.91561991 0.081639022
-0.47051042 -0.036112018 0.97199458 -0.26905227 0.44052666 0.86210871 0.081639022
-0.48827651 -0.24277721 1.0626193 -0.35388082 0.38583821 0.87235469 0.081639022
0.064691857 -0.082530268 1.1043942 -0.11468381 0.41326892 0.92451566 0.081639022
-0.20884959 0.10329385 0.9604587 -0.19426624 0.50057054 0.84551269 0.081639022
0.076475769 -0.9034062 1.960408 0.11488981 1.4302251 0.34124595 0.081639022
-0.069079325 0.10071474 0.99316978 -0.19111089 0.46445844 0.86951941 0.081639022
-0.32781416 -0.091765366 1.0407404 -0.21735044 0.44988075 0.87119353 0.081639022
-0.22554918 -0.36314312 1.2090459 -0.19664368 0.49514353 0.84828955 0.081639022
-0.10986088 -0.31299904 1.2009804 -0.11882439 0.49473372 0.87122685 0.081639022
-0.24710493 -0.26507068 1.1495891 -0.19692905 0.46358305 0.86838377 0.081639022
-0.13861924 -0.35254109 1.2196822 -0.13597074 0.50783908 0.8578521 0.081639022
-0.45265666 -0.82679403 1.4493452 -0.68049419 0.6816659 0.58805543 0.081639022
0.042232025 -0.45826647 1.3034734 -0.014467174 0.58203864 0.84581876 0.081639022
-0.1754892 0.094907403 0.97291493 -0.19048864 0.49107856 0.85268188 0.081639022
0.031271033 -0.69569021 1.5211234 0.0068336353 0.85239297 0.67918169 0.081639022
-0.33861351 0.12636819 0.91486037 -0.20956467 0.52721947 0.8240177 0.081639022
0.0031401634 -0.6264165 1.4425824 -0.025317788 0.74883074 0.73602295 0.081639022
-0.12721021 0.079106577 0.99234557 -0.18420614 0.47538939 0.86454296 0.081639022
-0.48719192 0.018681325 0.93803591 -0.26117563 0.46127802 0.85113704 0.081639022
-0.47841606 -0.049047492 0.97604811 -0.27640924 0.43378621 0.86427432 0.081639022
-0.026989479 -0.70326161 1.5287848 -0.053066324 0.85289425 0.66140729 0.081639022
0.1870769 -0.046296764 1.1051359 -0.13043885 0.35839987 0.95500398 0.081639022
-0.0023508279 -0.35491565 1.2360609 -0.056831237 0.5154677 0.87603486 0.081639022
-0.43503058 0.062972687 0.92830098 -0.23420632 0.4912281 0.83984762 0.081639022
-0.32028398 -0.68199313 1.4070994 -0.39762926 0.66001791 0.68431771 0.081639022
-0.13402212 0.14210173 0.95499164 -0.2031225 0.49795353 0.84460527 0.081639022
0.20866649 -0.26842248 1.1966929 -0.010931114 0.42769381 0.94552529 0.081639022
-0.54385382 -0.80391639 1.3191698 -0.79631025 0.51933151 0.65809268 0.081639022
-0.22818027 -0.51191229 1.3042946 -0.23011953 0.57104224 0.79001147 0.081639022
-0.54536909 -0.16778101 1.0068583 -0.35995018 0.37444586 0.87786955 0.081639022
-0.41133112 0.032227241 0.9524914 -0.23182324 0.47849458 0.84868288 0.081639022
