# .PCD v0.7 - Point Cloud Data file format
VERSION 0.7
FIELDS x y z normal_x normal_y normal_z curvature
SIZE 4 4 4 4 4 4 4
TYPE F F F F F F F
COUNT 1 1 1 1 1 1 1
WIDTH 195
HEIGHT 1
VIEWPOINT 0 0 0 1 0 0 0
POINTS 195
DATA ascii
-0.65313578 -1.1358526 0.13879488 0.90742272 0.095613614 -0.40919679 0.17572704
-0.94890249 -1.223648 -0.1288698 0.3804011 -0.06312158 -0.922665 0.17572704
-0.88637292 -0.65185863 -0.06162459 0.45949987 -0.035928298 -0.88745087 0.17572704
-0.61789745 -0.58844936 0.10436985 0.60793179 -0.52586657 -0.59488088 0.17572704
-0.63538116 -0.63786823 0.12381593 0.71941018 -0.40226993 -0.56624013 0.17572704
-0.79248255 -0.36985558 -0.11028021 0.10135229 -0.49348199 -0.86383057 0.17572704
-0.79248619 -0.93965268 0.80665267 0.85817593 0.035547536 0.51212353 0.17572704
-0.9257037 -0.66696137 -0.081204847 0.44067711 0.0047303154 -0.89765322 0.17572704
-0.78665471 -0.37553784 -0.10631517 0.10860061 -0.49540931 -0.86184424 0.17572704
-0.87592429 -0.59327525 -0.061075289 0.4205527 -0.10736 -0.90089357 0.17572704
-0.88637292 -0.65185863 -0.06162459 0.45949987 -0.035928298 -0.88745087 0.17572704
-0.90801412 -0.63250208 -0.073206529 0.43238318 -0.037458327 -0.90091157 0.17572704
-0.64514405 -1.1141971 0.5037111 0.95868009 0.067235537 0.27642688 0.17572704
-0.57776332 -0.33394203 -0.13637428 -0.073607668 -0.73464257 -0.67444956 0.17572704
-0.85384309 -0.66346711 -0.043434069 0.49256021 -0.051162247 -0.86877322 0.17572704
-0.72125596 -0.66031617 0.046600726 0.63119942 -0.20903818 -0.74692059 0.17572704
-1.1855973 -0.93323773 -0.21057777 0.28754038 0.054174062 -0.95623517 0.17572704
-0.90220165 -0.4027679 -0.11333647 0.18777847 -0.31567073 -0.93010283 0.17572704
-0.76428545 -1.2256874 -0.018690543 0.65106666 0.031899214 -0.75834996 0.17572704
-0.72765577 -1.1172147 0.027966356 0.74597061 0.093413264 -0.65939504 0.17572704
-0.67461014 -0.95188737 0.13107109 0.88261908 0.05957571 -0.46629852 0.17572704
-0.60974669 -1.206755 0.32867336 0.99675596 0.077943295 0.020059742 0.17572704
-0.56054187 -0.61490124 0.2388835 0.77918947 -0.59180546 -0.20647044 0.17572704
-0.90249825 -0.58883208 -0.073621348 0.40291017 -0.086714767 -0.91112238 0.17572704
-1.0595187 -1.1308165 -0.17408429 0.31014162 -0.033337098 -0.95010567 0.17572704
-1.0043072 -0.9339031 -0.14283511 0.41525826 0.093327984 -0.90490359 0.17572704
-0.60199386 -0.6511181 0.18973066 0.81326628 -0.44405758 -0.37604624 0.17572704
-0.63811749 -1.1809951 0.49580497 0.96052545 0.068302363 0.26967689 0.17572704
-0.57272094 -0.63249242 0.23969828 0.81768668 -0.53372097 -0.21570905 0.17572704
-0.61849397 -0.7906971 0.35723618 0.98682469 -0.15288565 0.052943364 0.17572704
-0.56833231 -0.6187517 0.22243331 0.77814364 -0.5723151 -0.25874281 0.17572704
-0.63831651 -0.56155241 0.064448938 0.51190966 -0.52340603 -0.68117154 0.17572704
-0.58810657 -0.59690928 0.14877976 0.66936982 -0.57629836 -0.46885422 0.17572704
-0.74331754 -1.0683309 0.017858235 0.7242018 0.099376798 -0.68238997 0.17572704
-0.894979 -0.72014564 -0.066035882 0.48795363 0.026347067 -0.87247181 0.17572704
-0.86775714 -1.1209068 -0.087260589 0.51968151 0.056372922 -0.85249823 0.17572704
-0.6129936 -0.7106421 0.22878318 0.91401494 -0.30320069 -0.26952934 0.17572704
-0.86465627 -0.64579701 -0.050516713 0.47127613 -0.060039688 -0.87993979 0.17572704
-0.66309536 -0.69012958 0.11748993 0.7702378 -0.25521743 -0.58446372 0.17572704
-0.72551286 -0.66957104 0.04544881 0.63739276 -0.18870859 -0.74707401 0.17572704
-0.53930587 -0.53877914 0.50040025 0.68117142 -0.6352793 0.3639034 0.17572704
-1.2229433 -0.49545002 -0.18305521 0.25709805 0.042059768 -0.9654696 0.17572704
-0.8836751 -0.64854109 -0.060372271 0.45925498 -0.041269809 -0.88734531 0.17572704
-0.67763066 -0.65977979 0.087343536 0.69500017 -0.28178895 -0.66149056 0.17572704
-0.64313793 -0.68658984 0.14431201 0.80502439 -0.29696041 -0.5135662 0.17572704
-1.4403514 -1.8034203 1.0681578 -0.014230509 -0.9764443 0.21529973 0.17572704
-0.63651222 -0.6377669 0.12231466 0.7173295 -0.40013748 -0.57037568 0.17572704
-0.68842 -0.4415752 -0.046364289 0.20013402 -0.56996256 -0.79692471 0.17572704
-0.65582758 -0.5918631 0.071820073 0.57972282 -0.44019011 -0.68567783 0.17572704
-0.53168988 -0.56092906 0.17818402 0.5850839 -0.74142736 -0.32857618 0.17572704
-0.48432958 -0.54670423 0.31642839 0.60590237 -0.79332155 0.059357353 0.17572704
-0.66165847 -1.1221501 0.1239737 0.8897078 0.096922711 -0.44612327 0.17572704
-0.66334039 -1.1804008 0.10899089 0.87439352 0.08723525 -0.47731119 0.17572704
-0.66958743 -0.63982123 0.086414501 0.67073482 -0.33100253 -0.66374099 0.17572704
-0.60968435 -0.62595165 0.14918359 0.73005342 -0.47809619 -0.48830938 0.17572704
-1.0845989 -1.0891716 -0.18315372 0.30659541 -0.0098918537 -0.95178854 0.17572704
-0.89408356 -0.31402314 -0.14833936 0.058864307 -0.4273439 -0.90217084 0.17572704
-0.86377943 -0.57542634 -0.057940017 0.40938497 -0.14152825 -0.90131778 0.17572704
-0.60375661 -0.68107498 0.22244614 0.88079584 -0.37808248 -0.28504792 0.17572704
-1.0018057 -1.1981269 -0.15090209 0.33395436 -0.067194685 -0.94019115 0.17572704
-0.92448765 -0.58462083 -0.083501242 0.38907495 -0.071505785 -0.91842669 0.17572704
-0.88851666 -0.66079056 -0.062429462 0.46354321 -0.025917212 -0.88569522 0.17572704
-1.059106 -1.2065189 -0.16836964 0.27093601 -0.11056753 -0.95622617 0.17572704
-0.52136391 -0.51067555 0.095245183 0.36598217 -0.79759365 -0.4794803 0.17572704
-0.62365532 -1.0363108 0.3533631 0.99683475 0.060200308 0.051926672 0.17572704
-0.69678193 -0.36244699 -0.10689469 0.042505268 -0.6155653 -0.78693879 0.17572704
-0.7032156 -1.1033475 0.060204621 0.79894918 0.098117478 -0.59334069 0.17572704
-0.6164155 -1.3325957 0.20121017 0.96595049 0.026166614 -0.2574003 0.17572704
-0.40488905 -0.49641281 0.34000799 0.4145768 -0.8967464 0.15482877 0.17572704
-0.50883144 -0.56597078 0.26616329 0.64952672 -0.75595504 -0.081529379 0.17572704
-0.93245906 -1.2654949 1.0363677 0.79365206 -0.002338819 0.60836744 0.17572704
-1.1600276 -1.019021 -0.20605068 0.27637383 0.010594046 -0.9609918 0.17572704
-1.2322152 -1.1916028 -0.20600785 0.12737189 -0.20423628 -0.97059977 0.17572704
-0.85924125 -0.62943619 -0.048969369 0.46245247 -0.082647413 -0.88278371 0.17572704
-0.67113322 -1.0298226 0.56686836 0.93805468 0.050596368 0.34277317 0.17572704
-1.3545169 -1.0401489 1.5147347 0.71537793 0.0060865982 0.69871122 0.17572704
-1.0200807 -1.0915278 -0.1602812 0.36253548 0.016830923 -0.93181795 0.17572704
-0.78511745 -1.110643 -0.027151208 0.6431483 0.084457763 -0.76106972 0.17572704
-0.75332749 -0.66706848 0.022516005 0.59793586 -0.15402798 -0.78660542 0.17572704
-0.694516 -0.72595394 0.09012159 0.7531541 -0.14917529 -0.64070714 0.17572704
-0.39203829 -0.49529475 0.30839655 0.38074988 -0.9187839 0.10423876 0.17572704
-0.85084993 -0.65056741 -0.042629022 0.48557526 -0.067366526 -0.87159532 0.17572704
-0.86913359 -0.62925458 -0.054114927 0.45541847 -0.073592685 -0.88723063 0.17572704
-0.88872063 -0.5847311 -0.067923501 0.40615705 -0.10444615 -0.90781468 0.17572704
-0.90028906 -0.64354283 -0.069001988 0.44451106 -0.033007193 -0.89516503 0.17572704
-1.0939221 -1.1031959 -0.1858191 0.29262272 -0.02613904 -0.95587063 0.17572704
-0.80537933 -1.0145183 -0.032133196 0.62686551 0.10021687 -0.77265531 0.17572704
-0.8086887 -0.64889073 -0.018150926 0.52037406 -0.11158139 -0.84661704 0.17572704
-0.88452882 -0.55620092 -0.069971092 0.38044128 -0.14243919 -0.91376996 0.17572704
-0.78209621 -0.36714834 -0.11068941 0.092237994 -0.50915223 -0.85571969 0.17572704
-0.63199413 -0.64155555 0.13089989 0.73381966 -0.40238824 -0.54735035 0.17572704
-0.81222326 -0.83681673 -0.017433684 0.61392289 0.059072088 -0.78715259 0.17572704
-0.74026388 -0.67301077 0.033981878 0.62136793 -0.16301183 -0.76637393 0.17572704
-0.59739548 -0.62601638 0.16910544 0.75058669 -0.50353122 -0.42787373 0.17572704
-0.88289738 -0.64756459 -0.060016084 0.45915636 -0.042851042 -0.88732135 0.17572704
-0.8999356 -0.6610164 -0.068332404 0.45537814 -0.017370541 -0.89012861 0.17572704
-0.68930531 -1.0169033 0.095555522 0.84285355 0.090891957 -0.53041172 0.17572704
-0.55397671 -0.61570144 0.27573124 0.79890567 -0.59283042 -0.10149808 0.17572704
-0.5680126 -0.58523428 0.16281489 0.65094537 -0.63737637 -0.41233659 0.17572704
-0.6398899 -1.0938703 0.1843119 0.94756454 0.09234333 -0.30593169 0.17572704
-0.62620658 -1.0972257 0.23731954 0.97957361 0.087129176 -0.18122925 0.17572704
-0.57907158 -0.63403618 0.22178699 0.80947912 -0.52114922 -0.27045712 0.17572704
-0.64986694 -1.1277474 0.14822826 0.91686809 0.095831625 -0.38751677 0.17572704
-0.60552144 -0.55996346 0.08950299 0.52729875 -0.59443378 -0.60712802 0.17572704
-0.57272094 -0.63249242 0.23969828 0.81768668 -0.53372097 -0.21570905 0.17572704
-0.5235008 -0.55725282 0.18449733 0.57540482 -0.75983459 -0.30259004 0.17572704
-0.87169695 -0.65370435 -0.053812023 0.47157472 -0.045960005 -0.88062757 0.17572704
-0.70842403 -0.73779017 0.076637067 0.73745215 -0.11434168 -0.66565031 0.17572704
-1.2210013 -1.1869493 -0.20541276 0.1396569 -0.19088714 -0.97162652 0.17572704
-0.78845775 -0.64597106 -0.0058521735 0.53664529 -0.13852109 -0.83236033 0.17572704
-0.87837929 -0.65277368 -0.057408471 0.46593595 -0.041410327 -0.88384891 0.17572704
-0.72487301 -0.27210861 -0.1781783 -0.08649417 -0.63067794 -0.77120954 0.17572704
-0.39147168 -0.41388404 -0.039798401 -0.021949589 -0.88628829 -0.46261358 0.17572704
-0.86221933 -0.35277084 -0.12720352 0.10238986 -0.42405468 -0.89982992 0.17572704
-0.83118677 -0.47524178 -0.070297986 0.2865845 -0.31545794 -0.90463006 0.17572704
-0.62154311 -1.0818317 0.36722875 0.99422884 0.071415931 0.080054827 0.17572704
-1.1823186 -0.89764237 -0.20721386 0.2984193 0.071469091 -0.95175529 0.17572704
-0.6465174 -1.0160186 0.48679972 0.96576023 0.046780154 0.25518388 0.17572704
-0.62368309 -0.78458941 0.25831193 0.96998984 -0.15859737 -0.18430039 0.17572704
-0.76618499 -0.65329993 0.010443683 0.56763488 -0.15639243 -0.80828959 0.17572704
-0.79524398 -0.65394086 -0.0089912089 0.53800893 -0.12031361 -0.83430868 0.17572704
-0.55434936 -0.61913913 0.33060011 0.82398295 -0.56540745 0.036965884 0.17572704
-0.56194562 -0.60413253 0.4300355 0.80871218 -0.53600931 0.24223672 0.17572704
-0.6961922 -0.71924853 0.086591229 0.74306792 -0.15668817 -0.6506142 0.17572704
-0.63158739 -0.88906944 0.40429887 0.99005836 -0.030309225 0.13735273 0.17572704
-0.55891174 -0.54567695 0.11603182 0.50065243 -0.70715833 -0.49927378 0.17572704
-0.61970025 -0.67483938 0.17711198 0.83227354 -0.36276591 -0.41919169 0.17572704
-1.5692995 -1.1417401 -0.22858165 -0.071720339 -0.36787066 -0.92710698 0.17572704
-0.93688619 -1.000237 -0.11631826 0.46687087 0.087535575 -0.87998247 0.17572704
-1.0317425 -1.2902925 -0.14751798 0.24590473 -0.19752342 -0.94895488 0.17572704
-0.73748827 -0.66917562 0.035393327 0.62060958 -0.17231457 -0.76495188 0.17572704
-0.678994 -0.67004615 0.090130635 0.70969528 -0.26197046 -0.65399092 0.17572704
-0.64336324 -0.65393215 0.12427291 0.74185485 -0.35661924 -0.56786805 0.17572704
-0.70851356 -0.75918424 0.07979013 0.75391895 -0.08637052 -0.6512652 0.17572704
-0.66534728 -1.1907623 0.1035441 0.86762071 0.083803087 -0.49011359 0.17572704
-0.70493054 -1.113214 0.05630701 0.79348922 0.096748091 -0.60084492 0.17572704
-1.3364503 -0.93396676 -0.24837571 0.19899629 -0.00081593235 -0.9799999 0.17572704
-1.0846354 -1.1770692 -0.17861596 0.26347265 -0.093242258 -0.96015 0.17572704
-1.1668917 -1.1688356 -0.19909161 0.19609144 -0.1340979 -0.9713732 0.17572704
-1.1290669 -1.149713 -0.19279845 0.23933445 -0.090007491 -0.96675628 0.17572704
-0.8373583 -0.60059422 -0.04124691 0.45031208 -0.1397139 -0.88187248 0.17572704
-0.84914851 -0.61995322 -0.044682425 0.46132252 -0.10345566 -0.88118017 0.17572704
-1.462165 -1.1514457 -0.22985657 -0.010752738 -0.30811682 -0.95128775 0.17572704
-0.80506742 -0.6692037 -0.013419405 0.54200113 -0.09096238 -0.83544034 0.17572704
-0.63045728 -0.68486762 0.16456045 0.82890147 -0.32340467 -0.45643377 0.17572704
-0.62021899 -0.6649214 0.16759819 0.80979347 -0.38127893 -0.44593829 0.17572704
-1.1475047 -0.97894782 -0.20117345 0.29898322 0.041329999 -0.95336294 0.17572704
-0.85162246 -0.65238613 -0.042921986 0.48633403 -0.064714089 -0.87137324 0.17572704
-0.62878841 -1.1289651 0.21160522 0.96734715 0.091779679 -0.23625408 0.17572704
-0.61582726 -0.65115964 0.16319537 0.78625619 -0.41691276 -0.45605367 0.17572704
-0.5972895 -0.64737785 0.19554961 0.81265205 -0.46063942 -0.35694259 0.17572704
-0.89420325 -0.66003579 -0.065407127 0.45892641 -0.022390042 -0.88819212 0.17572704
-0.63798714 -0.92232758 0.43926543 0.98134166 -0.0023020571 0.19225819 0.17572704
-1.3856831 -1.0359234 1.5464007 0.71060395 0.0024010197 0.70358813 0.17572704
-0.64051133 -0.90224433 0.45240137 0.97700262 -0.016526004 0.21258584 0.17572704
-0.62397218 -1.0194137 0.3322098 0.9983865 0.055808123 0.010481795 0.17572704
-0.62874037 -0.65529841 0.14576817 0.77151954 -0.38309464 -0.50793314 0.17572704
-1.0860764 -1.0911946 -0.18360436 0.30449638 -0.012231066 -0.95243496 0.17572704
-1.2462939 -1.1844783 -0.20930894 0.1211104 -0.20458488 -0.9713276 0.17572704
-1.0476274 -0.97264218 -0.16510168 0.37366572 0.073501706 -0.92464668 0.17572704
-0.60839611 -1.349677 0.23557353 0.98421592 0.018476851 -0.17600457 0.17572704
-0.77973598 -0.65608686 0.0015933835 0.55601972 -0.13574049 -0.82001013 0.17572704
-1.0552619 -1.0600638 -0.17283866 0.34259284 0.02434269 -0.93916857 0.17572704
-0.60714275 -0.73377734 0.36359164 0.9642154 -0.25468591 0.073645949 0.17572704
-0.93624693 -1.2148982 -0.12402135 0.39979807 -0.046944711 -0.91540027 0.17572704
-0.94890249 -1.223648 -0.1288698 0.3804011 -0.06312158 -0.922665 0.17572704
-0.93466622 -1.1186256 -0.12371885 0.43977705 0.033067148 -0.89749801 0.17572704
-0.53931451 -0.56598938 0.17574531 0.60096258 -0.72119296 -0.34456441 0.17572704
-0.77597749 -0.75533098 0.014052896 0.637366 -0.024683533 -0.7701658 0.17572704
-0.91230494 -0.69134772 -0.074704215 0.46179515 0.015324157 -0.88685423 0.17572704
-0.62736136 -0.97710925 0.36737156 0.99674523 0.033045333 0.073531859 0.17572704
-0.54801667 -0.60481137 0.2591956 0.76471502 -0.62908024 -0.13953128 0.17572704
-0.90813541 -0.58174127 -0.076765843 0.39425313 -0.089229509 -0.9146598 0.17572704
-0.62162256 -1.1225749 0.39628181 0.98855597 0.07499785 0.13089094 0.17572704
-1.1650206 -0.31406212 -0.17846268 0.14224598 -0.14598809 -0.97900641 0.17572704
-0.79864311 -0.91119307 0.81513667 0.85479832 0.027703812 0.51822031 0.17572704
-0.78754914 -0.37718633 -0.10548515 0.11181176 -0.49264863 -0.86301535 0.17572704
-0.85402328 -0.66661417 -0.043357179 0.49458954 -0.047801629 -0.86781114 0.17572704
-0.82468569 -0.46895337 -0.070527941 0.27663752 -0.33293998 -0.90145588 0.17572704
-0.69899249 -1.1253639 0.062327836 0.80398846 0.095323019 -0.58695495 0.17572704
-0.74934441 -0.66653723 0.025457146 0.60228735 -0.16000886 -0.78207874 0.17572704
-0.65874732 -0.70345634 0.12929724 0.79875088 -0.23972912 -0.55183959 0.17572704
-0.71888798 -0.41099095 -0.07407479 0.14653592 -0.55290008 -0.82026136 0.17572704
-0.8046267 -0.66614282 -0.013474775 0.53982526 -0.095052965 -0.83639324 0.17572704
-0.66165847 -1.1221501 0.1239737 0.8897078 0.096922711 -0.44612327 0.17572704
-0.83324856 -0.95429504 -0.046052214 0.59218764 0.099634707 -0.79961658 0.17572704
-0.90211374 -0.66904998 -0.06933286 0.45831195 -0.0088969022 -0.88874686 0.17572704
-1.2708424 -0.93329966 -0.23373002 0.23655915 0.025624665 -0.97127914 0.17572704
-0.68681222 -0.70821059 0.094519719 0.74859935 -0.1870991 -0.63607615 0.17572704
-0.48735198 -0.54963654 0.3060416 0.61099929 -0.79091686 0.033621937 0.17572704
-0.55001593 -0.5845952 0.19450414 0.67113626 -0.67245895 -0.31204987 0.17572704
-1.0466701 -1.1719019 -0.16781631 0.30208954 -0.065841474 -0.95100307 0.17572704
-0.68002856 -0.86841989 0.12715645 0.86414003 0.0036116373 -0.5032385 0.17572704
-0.83036828 -0.66987967 -0.029231312 0.51791793 -0.065363102 -0.85292947 0.17572704
-0.4696821 -0.5203644 0.17204194 0.41955701 -0.87010479 -0.25863028 0.17572704
