# .PCD v0.7 - Point Cloud Data file format
VERSION 0.7
FIELDS x y z normal_x normal_y normal_z curvature
SIZE 4 4 4 4 4 4 4
TYPE F F F F F F F
COUNT 1 1 1 1 1 1 1
WIDTH 110
HEIGHT 1
VIEWPOINT 0 0 0 1 0 0 0
POINTS 110
DATA ascii
0.33499464 -0.0914938 1.1852018 0.017414093 0.28876007 0.95724308 0.1051324
0.24066386 -0.2677452 1.2429668 -0.037651211 0.34388986 0.93825483 0.1051324
-0.20636907 -0.22633193 1.018973 -0.6141417 0.40526542 0.67719269 0.1051324
0.055793658 0.35132101 1.0513377 -0.30877712 -0.0099638551 0.95108223 0.1051324
-0.32800177 -0.38088036 1.0164552 -0.61578995 0.55380243 0.56045127 0.1051324
-0.15572362 -0.10576806 1.00323 -0.59634161 0.29161048 0.74789035 0.1051324
-0.22916192 -0.18370312 0.97456706 -0.636509 0.34582081 0.68939412 0.1051324
0.085561104 0.26405823 1.0635442 -0.31159127 0.064076029 0.94805336 0.1051324
-0.017841918 0.26481387 1.0232702 -0.40705201 0.016645741 0.91325331 0.1051324
-0.25459591 -0.072033584 0.90939951 -0.63813967 0.19608697 0.74453181 0.1051324
-0.073811173 -0.13350524 1.075554 -0.52303183 0.34854916 0.77778608 0.1051324
0.29130289 -0.29006931 1.2508154 0.037264433 0.32017165 0.94662637 0.1051324
0.30668879 -0.2285087 1.2296062 0.028252231 0.31558338 0.94847715 0.1051324
-0.5069887 -0.20046645 0.71675122 -0.64267081 0.18195906 0.74422115 0.1051324
-0.29074839 -0.24878769 0.95097464 -0.65574473 0.3975831 0.64181501 0.1051324
0.53061616 -0.23353899 1.1944994 0.26531067 0.24191141 0.93332154 0.1051324
-0.32588908 0.044346809 0.83563644 -0.60120738 0.019491062 0.7988553 0.1051324
-0.22166206 -0.13317427 0.9585306 -0.63455302 0.28909507 0.71677506 0.1051324
-0.38947365 0.057943963 0.78898335 -0.58216989 -0.037049994 0.8122226 0.1051324
-0.425542 -0.21153927 0.79506141 -0.67231756 0.25924566 0.69338357 0.1051324
0.1313054 -0.0011808508 1.1277682 -0.29063785 0.2734943 0.91691357 0.1051324
-0.37445983 0.0071194158 0.79964203 -0.6089642 0.022619788 0.79287511 0.1051324
0.0567999 0.35292807 1.0516808 -0.30718464 -0.01058773 0.95159101 0.1051324
0.11434257 -0.26104733 1.2228488 -0.21636002 0.39949462 0.89083803 0.1051324
0.011782083 0.19956084 1.0400215 -0.40624273 0.081866406 0.91009051 0.1051324
-0.27454358 -0.10985099 0.90281594 -0.65042681 0.22829476 0.7244491 0.1051324
0.1944382 0.12482242 1.1131141 -0.20537527 0.19574194 0.9589088 0.1051324
-0.075150311 -0.13252114 1.0742114 -0.52461004 0.34732828 0.77726918 0.1051324
0.28561351 -0.083154581 1.1817667 -0.051747009 0.29836667 0.95304751 0.1051324
-0.2826786 -0.65885001 1.3541843 -0.22255349 0.66249615 0.71524036 0.1051324
-0.29368839 -0.26626623 0.95916742 -0.65288049 0.41908231 0.63096517 0.1051324
-0.037892479 0.42838818 1.0230341 -0.3478637 -0.10245974 0.93192965 0.1051324
0.14961174 -0.057966445 1.1513101 -0.25467339 0.30879471 0.91639906 0.1051324
0.14681877 -0.18758287 1.1991775 -0.21111356 0.36807904 0.90551031 0.1051324
-0.31965396 0.18833144 0.84740019 -0.5359543 -0.099415764 0.83837312 0.1051324
-0.33056399 0.098599046 0.83274305 -0.57630306 -0.034054834 0.81652623 0.1051324
0.12828845 -0.2512835 1.2217963 -0.20253012 0.39170745 0.89752263 0.1051324
0.22093181 0.20867015 1.1033995 -0.16015019 0.14467177 0.97643328 0.1051324
-0.1621577 -0.09636154 0.99450755 -0.60050082 0.27822366 0.74966013 0.1051324
-0.52800745 -0.37923011 0.7829237 -0.65277851 0.47127241 0.59311259 0.1051324
0.053116977 0.27058166 1.0519046 -0.34254164 0.045655444 0.9383927 0.1051324
0.13169613 0.20102122 1.0842273 -0.27617329 0.12711324 0.95266497 0.1051324
-0.33072081 -0.20749517 0.88763553 -0.6716218 0.31906372 0.66867214 0.1051324
-0.29866597 -0.18816495 0.91035992 -0.66411346 0.31299132 0.67896223 0.1051324
-0.23233157 0.014828658 0.91000378 -0.60822612 0.11424887 0.78549868 0.1051324
0.17840424 0.072944187 1.1209967 -0.22909684 0.22821763 0.94627237 0.1051324
-0.059392802 0.28797576 1.0042565 -0.42629936 -0.021821994 0.90431887 0.1051324
0.17655554 -0.3014012 1.251086 -0.10334844 0.37474123 0.92135125 0.1051324
0.37746221 -0.42593157 1.2818145 0.18671909 0.25501144 0.94873869 0.1051324
-0.3427982 -0.070721164 0.83307737 -0.64487606 0.1322908 0.75275099 0.1051324
-0.54769707 -0.89021409 1.5606432 0.12723552 0.69801664 0.70468706 0.1051324
-0.23671144 0.18633151 0.90042371 -0.53766662 -0.046818815 0.84185666 0.1051324
0.043789707 0.4729552 1.0542096 -0.26656461 -0.089898422 0.95961535 0.1051324
0.43361682 0.036649842 1.1434627 0.11917423 0.23434722 0.96482062 0.1051324
0.32678264 0.024627138 1.1523206 -0.016492294 0.25222406 0.96752828 0.1051324
0.46195623 -0.36567366 1.2470434 0.23881201 0.24025953 0.94087416 0.1051324
0.20507172 -0.42879826 1.3018115 0.016814493 0.34055671 0.94007361 0.1051324
-0.56517774 -0.44153556 0.79823035 -0.62249142 0.56861478 0.53775615 0.1051324
-0.3453888 -0.47144422 1.0988487 -0.54466772 0.65121561 0.52844614 0.1051324
0.14920588 -0.15642489 1.1872933 -0.22210859 0.3563132 0.90758395 0.1051324
0.2816906 -0.31633207 1.2601138 0.038851842 0.32194585 0.94596058 0.1051324
-0.11234337 0.37403211 0.98579818 -0.41440377 -0.10722889 0.90375412 0.1051324
-0.24811924 0.33972543 0.91251719 -0.46589464 -0.1581625 0.87058991 0.1051324
-0.57063496 -0.40290388 0.75585067 -0.63541591 0.49293298 0.59435987 0.1051324
-0.19919986 -0.30091488 1.0754825 -0.57641584 0.48604476 0.65689063 0.1051324
0.33504221 0.090190277 1.1364012 -0.010874266 0.22236493 0.97490287 0.1051324
0.40353149 0.022094866 1.1502299 0.0840391 0.24322513 0.96632242 0.1051324
0.085820422 0.26336306 1.0636766 -0.31154245 0.064688988 0.94802779 0.1051324
-0.3355228 -0.23018892 0.89419669 -0.67221349 0.34764481 0.65366054 0.1051324
-0.26792878 -0.017105522 0.88666475 -0.62509978 0.12436577 0.77057344 0.1051324
-0.22952275 -0.0092168143 0.91614872 -0.61524171 0.14181566 0.77547789 0.1051324
-0.25175405 -0.078871556 0.91369295 -0.63889742 0.20601676 0.74119312 0.1051324
-0.059392802 0.28797576 1.0042565 -0.42629936 -0.021821994 0.90431887 0.1051324
-0.1972118 -0.26053992 1.0488495 -0.59505045 0.44527376 0.66906369 0.1051324
0.18901241 -0.32623917 1.262238 -0.070799276 0.36762422 0.92727554 0.1051324
-0.29696393 -0.30351233 0.98234582 -0.64186305 0.46586573 0.60908204 0.1051324
0.10454659 0.18194416 1.0783914 -0.3131001 0.13266604 0.94040847 0.1051324
-0.041604139 -0.048711434 1.062915 -0.50038695 0.27907708 0.81959069 0.1051324
-0.063874997 0.22017039 1.0022315 -0.45801318 0.027431916 0.88852203 0.1051324
-0.53479457 -0.3453612 0.75153422 -0.65570349 0.40534779 0.63698202 0.1051324
0.27991787 0.22418429 1.1083033 -0.079395875 0.14535928 0.98618811 0.1051324
0.24809144 0.12555723 1.122323 -0.13108332 0.20153117 0.97067106 0.1051324
-0.30424345 0.24358386 0.8644594 -0.51145047 -0.12910742 0.84955853 0.1051324
-0.28236324 0.14931069 0.86843759 -0.55683124 -0.045703378 0.82936734 0.1051324
-0.3307611 0.10739614 0.83301294 -0.57223177 -0.041838836 0.81902403 0.1051324
-0.037647992 0.45555878 1.0263304 -0.33482638 -0.11777239 0.93489087 0.1051324
0.42020023 0.087491289 1.133074 0.099117115 0.21801183 0.97089994 0.1051324
0.46993873 -0.03583857 1.1562386 0.16977891 0.24685296 0.95406431 0.1051324
0.050076492 -0.26034239 1.2031398 -0.30844465 0.42395785 0.85154074 0.1051324
0.19688274 -0.060756639 1.1634784 -0.18515238 0.30579272 0.93392152 0.1051324
-0.36679935 -0.19047214 0.84435904 -0.67375648 0.27102986 0.68745548 0.1051324
-0.57317698 -0.44194949 0.78946131 -0.62048823 0.56616062 0.54263842 0.1051324
-0.29953769 -0.4364526 1.1043261 -0.55040032 0.61410064 0.56563228 0.1051324
-0.44953698 -0.4791835 0.98936003 -0.58604956 0.66012555 0.4698725 0.1051324
-0.54790467 -0.45626336 0.83524978 -0.61675763 0.60168964 0.507523 0.1051324
-2.0872488 -2.3945153 3.2809958 0.74679559 -0.10264132 0.6570853 0.1051324
-0.38841501 -0.14055753 0.80774772 -0.66152173 0.18664362 0.72632855 0.1051324
0.25975233 -0.18535136 1.2143031 -0.051542677 0.32960418 0.94271123 0.1051324
0.32606032 -0.0018902358 1.1593798 -0.013687207 0.26284501 0.96474099 0.1051324
0.24508563 -0.27289855 1.2450063 -0.029161436 0.34188101 0.9392907 0.1051324
0.118784 0.15487239 1.0872245 -0.30120394 0.15763143 0.9404406 0.1051324
-0.26797354 0.19602656 0.88118696 -0.53503072 -0.07362438 0.84161842 0.1051324
-0.074354552 0.46629262 1.0142744 -0.35128412 -0.14108598 0.92557776 0.1051324
0.22035049 -0.071707428 1.1712352 -0.14804187 0.30727658 0.94003439 0.1051324
0.075010292 -0.085754536 1.1358232 -0.35335898 0.32790837 0.87613559 0.1051324
-0.53648734 -0.46398619 0.85872442 -0.61224872 0.61872709 0.49226853 0.1051324
-0.77056056 -0.59837747 0.80065542 -0.40733305 0.82180887 0.39838415 0.1051324
-0.4925507 -0.3366034 0.79037929 -0.6669122 0.41593572 0.61824399 0.1051324
-0.32354194 0.088431828 0.83739436 -0.58186483 -0.020324884 0.81303149 0.1051324
-0.53527439 -0.56576514 1.0240551 -0.50379705 0.76793963 0.39554676 0.1051324
