# .PCD v0.7 - Point Cloud Data file format
VERSION 0.7
FIELDS x y z normal_x normal_y normal_z curvature
SIZE 4 4 4 4 4 4 4
TYPE F F F F F F F
COUNT 1 1 1 1 1 1 1
WIDTH 110
HEIGHT 1
VIEWPOINT 0 0 0 1 0 0 0
POINTS 110
DATA ascii
0.028785577 0.38738316 0.90581721 -0.10225803 0.43506184 0.89457506 0.06203201
0.27176955 -0.19178526 1.1177731 0.061782628 0.31541258 0.94694132 0.06203201
0.11802326 0.26313928 0.96886879 -0.051984724 0.37397906 0.92597908 0.06203201
-0.2318179 -0.0007167086 0.83663869 -0.63693333 -0.1519537 0.75579494 0.06203201
0.20390052 -0.18054095 1.1135975 -0.081010647 0.29759896 0.95124769 0.06203201
-0.4007957 -0.36263075 0.57700831 -0.5856716 -0.19997884 0.7854917 0.06203201
-0.19575365 -0.094495632 0.85231555 -0.70653325 -0.11814455 0.69774824 0.06203201
0.1129863 0.19547836 0.99369401 -0.096182682 0.32336417 0.94137377 0.06203201
-0.14269896 -0.02587406 0.91011882 -0.64893395 -0.047192834 0.75937974 0.06203201
-0.29936028 -0.42600784 0.67155349 -0.80129337 -0.013479983 0.59811974 0.06203201
0.053939611 0.39875758 0.90248245 -0.066027418 0.45831177 0.88633555 0.06203201
-0.22922781 -0.20316488 0.79441345 -0.75822175 -0.13102332 0.63869607 0.06203201
-0.44952095 -0.19128655 0.60829228 -0.40806425 -0.35732979 0.84011841 0.06203201
0.099141814 0.41711685 0.89434117 -0.0049782884 0.49225497 0.87043685 0.06203201
0.12772268 -0.1174148 1.0824834 -0.24157917 0.24366981 0.93928939 0.06203201
-0.28728452 -0.025711808 0.7840758 -0.61639673 -0.22300294 0.75519854 0.06203201
0.06969136 0.28179309 0.95703006 -0.11547814 0.36397022 0.92422426 0.06203201
0.00010476066 0.1962644 0.97008771 -0.28834146 0.24114558 0.92666501 0.06203201
-0.19962111 0.15527155 0.87873602 -0.51847005 -0.023842774 0.85476333 0.06203201
-0.067170762 -0.066289209 0.97211921 -0.61121196 0.043042891 0.79029566 0.06203201
0.033405248 -0.37625483 1.1184663 -0.56474775 0.33266234 0.75524551 0.06203201
0.28173184 -0.19347142 1.1175864 0.080597028 0.31693071 0.94501799 0.06203201
-0.090947665 -0.47993615 1.0339674 -0.79097706 0.31853953 0.52238667 0.06203201
0.15427037 0.25489387 0.97326308 -0.00020771127 0.382438 0.92398113 0.06203201
-0.08871346 0.40874493 0.87578374 -0.20024055 0.37529275 0.90501881 0.06203201
-0.1836565 0.28740901 0.87948203 -0.38327563 0.13288464 0.91402489 0.06203201
0.19149049 0.1935423 0.99691117 0.033895548 0.35479966 0.93432772 0.06203201
-0.38377836 -0.0048908195 0.72318304 -0.47867391 -0.31686661 0.81882042 0.06203201
-0.37505198 -0.26479954 0.62666702 -0.59964734 -0.26154929 0.75631678 0.06203201
-0.38006371 -0.18199895 0.6539306 -0.55591786 -0.3072429 0.77237111 0.06203201
0.17955679 -0.040390931 1.0706621 -0.085104443 0.26794037 0.95966929 0.06203201
0.27504805 -0.31166628 1.161103 0.056040026 0.37118122 0.92686784 0.06203201
-0.039190367 0.43191665 0.87463468 -0.13899022 0.43735591 0.88848269 0.06203201
-0.039165497 0.37151149 0.90193701 -0.18981481 0.37445563 0.90760857 0.06203201
-0.043268383 0.36682287 0.90297276 -0.19814466 0.36633256 0.90914196 0.06203201
-0.27438465 -0.22450775 0.73693681 -0.73495638 -0.17526789 0.65507275 0.06203201
-0.30001032 -0.44974503 0.67079061 -0.80987746 0.019813985 0.58626437 0.06203201
-0.3279559 -0.0037131102 0.75990176 -0.55969739 -0.2624031 0.78605562 0.06203201
-0.1934544 -0.095585898 0.85446358 -0.70743322 -0.11522082 0.69732517 0.06203201
-0.30795059 0.16011046 0.81537765 -0.47518936 -0.15002595 0.86699903 0.06203201
-0.3550491 0.068531148 0.76593286 -0.48518991 -0.26206112 0.83421504 0.06203201
0.31474513 -0.26565835 1.1393088 0.13269834 0.34552491 0.92897993 0.06203201
-0.21870388 0.049339827 0.85600233 -0.60514206 -0.11724268 0.78743714 0.06203201
-0.22073193 -0.0024918267 0.84568512 -0.64163655 -0.13896732 0.75431466 0.06203201
-0.066439942 -0.069071658 0.97283834 -0.61233449 0.043861087 0.78938121 0.06203201
-0.03799317 0.11386764 0.97250164 -0.42005342 0.14174335 0.89636153 0.06203201
-0.36723971 0.27320457 0.80497313 -0.32534119 -0.098367587 0.94046634 0.06203201
-0.11274173 0.1827299 0.92619979 -0.44668463 0.10762332 0.88819486 0.06203201
0.084810749 -0.20630966 1.0909896 -0.39251256 0.24194491 0.88735366 0.06203201
-0.42133763 -0.27291051 0.59125698 -0.49959043 -0.2963632 0.8139891 0.06203201
-0.199508 -0.45831555 0.83615446 -0.86468136 0.14909257 0.47968486 0.06203201
-0.029667353 0.43720856 0.87341428 -0.12633759 0.44892892 0.88459122 0.06203201
0.15658753 0.4397268 0.87885034 0.065650925 0.52539134 0.84832418 0.06203201
-0.093702219 0.39946961 0.87841135 -0.21297303 0.3605476 0.90810126 0.06203201
-0.19445342 -0.096128061 0.85335946 -0.70768493 -0.1164247 0.69686967 0.06203201
-0.29377943 -0.42853975 0.67909116 -0.80865425 -0.0036186406 0.58827311 0.06203201
-0.27865005 -0.43709764 0.70079291 -0.82693064 0.025665393 0.56171793 0.06203201
-0.31438288 0.0035773034 0.77205926 -0.57182956 -0.24593458 0.78264117 0.06203201
-0.0053728935 0.27660447 0.94487911 -0.22920968 0.30664188 0.92381477 0.06203201
0.094422042 0.24710643 0.97322464 -0.097824328 0.35017854 0.93156075 0.06203201
-0.22073193 -0.0024918267 0.84568512 -0.64163655 -0.13896732 0.75431466 0.06203201
0.31474513 -0.26565835 1.1393088 0.13269834 0.34552491 0.92897993 0.06203201
-0.42881849 -0.060445156 0.67569852 -0.41693261 -0.36179262 0.83383048 0.06203201
-0.090947665 -0.47993615 1.0339674 -0.79097706 0.31853953 0.52238667 0.06203201
-0.27684349 -0.11760057 0.76552129 -0.67712218 -0.2136423 0.70417506 0.06203201
-0.32880923 -0.10826506 0.72219932 -0.6107583 -0.27243352 0.74347448 0.06203201
-0.29379982 0.14182326 0.82022643 -0.50032407 -0.14881518 0.85295361 0.06203201
-0.47843379 -0.46805689 0.50930572 -0.42211953 -0.11623678 0.89905733 0.06203201
-0.018667899 -0.018356707 1.0006251 -0.49995914 0.1070994 0.85940129 0.06203201
0.15193082 0.11380366 1.0237612 -0.068639688 0.29685348 0.95245296 0.06203201
-0.11011039 0.17695569 0.92822272 -0.4498547 0.10567106 0.88682824 0.06203201
0.0028326642 -0.0030605947 1.0102133 -0.44864514 0.13465466 0.88350761 0.06203201
-0.11468387 0.093325362 0.93231738 -0.53172743 0.037111342 0.84610206 0.06203201
-0.072666995 0.22050066 0.93816495 -0.36795315 0.1885407 0.9105289 0.06203201
-0.18407553 0.2375011 0.88499582 -0.43565834 0.075284667 0.89695823 0.06203201
-0.19962111 0.15527155 0.87873602 -0.51847005 -0.023842774 0.85476333 0.06203201
-0.11526355 -0.24269295 0.93210632 -0.76895326 0.034977462 0.63834739 0.06203201
0.24317713 0.33262435 0.92956221 0.14028272 0.45656627 0.87856019 0.06203201
0.17980175 0.2925809 0.95608824 0.050480478 0.41706219 0.90747499 0.06203201
0.19149049 0.1935423 0.99691117 0.033895548 0.35479966 0.93432772 0.06203201
0.21479461 0.36684245 0.91539276 0.11346401 0.47825909 0.87085831 0.06203201
-0.27566111 0.22898692 0.83991492 -0.43705902 -0.04558634 0.89827687 0.06203201
0.46619889 -0.014770302 1.0112462 0.34787914 0.30784661 0.88555664 0.06203201
0.28111663 -0.26713017 1.1435418 0.070441298 0.34685692 0.93526912 0.06203201
-0.01087432 -0.096096575 1.0153266 -0.5442521 0.1115724 0.83146936 0.06203201
0.052863963 -0.19282022 1.0717967 -0.4665544 0.20674889 0.85998946 0.06203201
0.17955679 -0.040390931 1.0706621 -0.085104443 0.26794037 0.95966929 0.06203201
0.057478309 -0.034771014 1.0405022 -0.35888064 0.18445015 0.91497695 0.06203201
0.12888423 -0.11856486 1.0830796 -0.23927474 0.24463646 0.93962789 0.06203201
-0.45013765 -0.27116477 0.57579589 -0.42809191 -0.31773856 0.84603757 0.06203201
-0.22113499 -0.2403249 0.79745024 -0.78131443 -0.10109674 0.61589545 0.06203201
-0.20555715 -0.49385464 0.8379494 -0.8678118 0.19351014 0.45766419 0.06203201
-0.38678008 -0.15262744 0.66111654 -0.53158671 -0.32158375 0.7835812 0.06203201
-0.14742862 -0.46882853 0.93432987 -0.84737384 0.22933061 0.47892067 0.06203201
-0.08871346 0.40874493 0.87578374 -0.20024055 0.37529275 0.90501881 0.06203201
-0.30252537 0.15153074 0.8169015 -0.48619622 -0.15101352 0.8607021 0.06203201
0.31002241 -0.017132455 1.057197 0.16228427 0.30410957 0.93871254 0.06203201
0.22671287 -0.094971642 1.0886517 -0.0054551163 0.28616858 0.95816374 0.06203201
0.22511075 -0.15186907 1.1058664 -0.0255078 0.29527399 0.95507205 0.06203201
-0.3436043 -0.41182655 0.61921084 -0.7299251 -0.082004346 0.67859024 0.06203201
-0.40012115 -0.15312909 0.65215129 -0.50518692 -0.33282685 0.79624903 0.06203201
0.30644292 0.087682739 1.0225531 0.17753601 0.32864377 0.92761749 0.06203201
0.2321313 -0.23828895 1.1342982 -0.029042117 0.32852864 0.94404739 0.06203201
0.096487254 -0.2262872 1.1016542 -0.36996004 0.26188391 0.89137334 0.06203201
-0.27012333 0.23555188 0.84287673 -0.43329027 -0.031764463 0.90069449 0.06203201
0.43566161 0.05036046 0.99972796 0.32303607 0.32203111 0.88991213 0.06203201
0.38283241 -0.49092788 1.226216 0.25092256 0.46093014 0.85122341 0.06203201
-0.42523891 -0.23202668 0.60448444 -0.47657207 -0.32345825 0.81746793 0.06203201
-0.13662183 -0.54589748 1.0033679 -0.82274312 0.35844475 0.44114754 0.06203201
-0.48645934 -0.47094336 0.5052889 -0.39920193 -0.1166449 0.90941286 0.06203201
