# .PCD v0.7 - Point Cloud Data file format
VERSION 0.7
FIELDS x y z normal_x normal_y normal_z curvature
SIZE 4 4 4 4 4 4 4
TYPE F F F F F F F
COUNT 1 1 1 1 1 1 1
WIDTH 53
HEIGHT 1
VIEWPOINT 0 0 0 1 0 0 0
POINTS 53
DATA ascii
-0.031922728 -0.041148402 0.7280755 -0.75672883 0.31958947 0.57028419 0.05822701
0.035826799 0.051295966 0.74389803 -0.55750406 0.50848776 0.6562236 0.05822701
0.12330122 -0.17368348 0.88813913 -0.38857418 0.1776228 0.90413505 0.05822701
0.12051564 -0.046376187 0.8505615 -0.37302518 0.35753506 0.85616642 0.05822701
0.22861066 -0.75394577 1.0865668 0.54799968 0.54809064 0.63189638 0.05822701
0.25986823 0.01418448 0.83386272 0.11678564 0.69374233 0.71069169 0.05822701
0.11586478 -0.097399734 0.86644959 -0.40760773 0.2599282 0.87538177 0.05822701
-0.34879607 -0.3316316 0.4896405 -0.35800096 0.92060852 -0.15593357 0.05822701
0.074596554 -0.16588433 0.86309963 -0.4610166 0.20783634 0.86270952 0.05822701
0.12551813 0.18556769 0.59287548 0.036384579 0.93246061 0.35943481 0.05822701
0.02112256 0.096015319 0.68889594 -0.57229656 0.60628301 0.55217528 0.05822701
0.44726142 -1.3971385 1.9859639 0.6839357 0.7163192 0.13827074 0.05822701
0.14320584 -0.67460334 1.0888315 0.53679115 0.58735007 0.60570222 0.05822701
0.30846441 -0.26120102 0.95710772 -0.22484031 0.097190812 0.96953636 0.05822701
0.22830375 -0.25049129 0.93552321 -0.27066785 0.097173698 0.9577558 0.05822701
0.14409272 -0.25058311 0.90918487 -0.32276019 0.13910994 0.93620205 0.05822701
0.16453594 0.18755306 0.57545829 0.16435184 0.93309832 0.31986874 0.05822701
0.25269324 0.089762829 0.73956871 0.24782899 0.82766706 0.50353557 0.05822701
0.0024851596 0.026254345 0.72933131 -0.67851323 0.41731429 0.60453999 0.05822701
0.1268492 0.1788445 0.60958076 0.031574868 0.92349344 0.38231257 0.05822701
0.1284899 0.11895201 0.7200619 -0.074013978 0.81339788 0.57697988 0.05822701
0.13284054 0.11528206 0.72570395 -0.064804867 0.80846369 0.58496737 0.05822701
0.10132094 0.07921169 0.75985694 -0.26608095 0.67698103 0.68621981 0.05822701
0.17660676 0.21542963 0.46622965 0.21240266 0.9540329 0.21143875 0.05822701
0.21251194 0.15211439 0.63967699 0.24592046 0.89331526 0.3761794 0.05822701
0.14796942 -0.50261915 0.97022742 0.15842153 0.3882367 0.90784079 0.05822701
-0.24857105 -0.28410098 0.67063242 -0.40720046 0.90153754 0.14634842 0.05822701
0.20462415 -0.18435881 0.91966182 -0.28819463 0.1624345 0.94369429 0.05822701
0.11370196 0.22270945 0.47095394 0.028569119 0.9746151 0.22205685 0.05822701
0.086960845 0.14235833 0.67471522 -0.20124462 0.83136809 0.51800358 0.05822701
-0.01723624 -0.24623661 0.8379159 -0.44837496 0.39393061 0.80235815 0.05822701
0.065217562 -0.1583875 0.85608286 -0.48081005 0.21682085 0.84959424 0.05822701
0.1015401 0.14538717 0.67444915 -0.13054256 0.85160136 0.50767487 0.05822701
0.12255769 0.13676929 0.69247377 -0.060607832 0.84834814 0.52595824 0.05822701
0.23926207 0.10257425 0.72458696 0.23793547 0.84033179 0.48706183 0.05822701
0.15894681 0.10061817 0.74682868 0.00041551015 0.7958582 0.60548288 0.05822701
0.233123 0.08156985 0.76021165 0.18647562 0.80676121 0.56068099 0.05822701
0.016457347 -0.080120265 0.79752493 -0.62329483 0.28226748 0.72926587 0.05822701
0.11466403 -0.12935169 0.87452739 -0.41167784 0.21815616 0.88483292 0.05822701
0.33033469 0.16642793 0.42850628 0.42877907 0.88564277 0.17828457 0.05822701
0.28534672 0.11320152 0.67208934 0.34298983 0.85837811 0.38150361 0.05822701
0.17726775 -0.097057737 0.89010459 -0.28510132 0.29464766 0.91208553 0.05822701
0.13898924 -0.24322514 0.90628225 -0.3321507 0.14375371 0.93220747 0.05822701
-0.25261101 -0.27540308 0.56797802 -0.57089591 0.82000953 0.040770873 0.05822701
0.30699956 -0.86746401 1.1152916 0.59534007 0.55283952 0.58304262 0.05822701
0.077517942 0.0075748391 0.80239522 -0.4523837 0.44498131 0.77287817 0.05822701
-0.16743158 -0.14323537 0.40441588 -0.92960238 0.36781734 0.023448089 0.05822701
0.9544642 -0.43506634 1.3374598 -0.73474187 0.63487065 0.23894288 0.05822701
0.58975774 -0.072616845 0.7274825 0.48339373 0.81169599 0.32784164 0.05822701
0.38788533 -0.3347325 0.98031789 -0.22758211 0.035178676 0.97312325 0.05822701
0.28672606 -0.32605365 0.95597994 -0.23543634 0.038446516 0.97112906 0.05822701
-0.042210184 -0.17874739 0.78597933 -0.63179481 0.35635281 0.68836617 0.05822701
0.27355817 -0.52032971 0.96547306 -0.011553279 0.13956949 0.99014485 0.05822701
