# .PCD v0.7 - Point Cloud Data file format
VERSION 0.7
FIELDS x y z normal_x normal_y normal_z curvature
SIZE 4 4 4 4 4 4 4
TYPE F F F F F F F
COUNT 1 1 1 1 1 1 1
WIDTH 50
HEIGHT 1
VIEWPOINT 0 0 0 1 0 0 0
POINTS 50
DATA ascii
-0.86935639 -1.3053764 0.92895967 -0.58506817 0.73878199 -0.33450916 0.14092001
-1.0743511 -1.1004989 -0.16345251 -0.32529739 -0.30315986 0.89569843 0.14092001
-0.99114245 -1.1766044 -0.15282671 -0.41907689 -0.2502676 0.87277758 0.14092001
-0.88474351 -1.1739484 -0.099182591 -0.46659157 -0.084688276 0.88040912 0.14092001
-1.0393444 -0.97638375 -0.12091224 -0.21962972 -0.18493804 0.95789391 0.14092001
-0.99052864 -1.183742 -0.15459283 -0.42752615 -0.25322387 0.86781281 0.14092001
-0.5133459 -0.64261132 0.19095036 -0.8279236 -0.26231417 0.49571541 0.14092001
-0.49002194 -0.87115562 0.16733077 -0.84528321 0.0186038 0.53399456 0.14092001
-0.86118907 -0.66183537 -0.062851064 -0.25948489 -0.00752341 0.96571785 0.14092001
-0.71701032 -0.35244769 0.049148161 -0.77518719 -0.17584769 0.60676384 0.14092001
-1.0341073 -0.36723581 -0.16565035 -0.26301658 0.48494586 0.8340562 0.14092001
-1.3221797 -0.3768478 -0.20668416 -0.055428784 0.64505339 0.76212454 0.14092001
-0.94501758 -0.35243142 -0.13779056 -0.41081521 0.3822234 0.82772952 0.14092001
-1.0526483 -0.29637998 -0.2281587 -0.29124802 0.69237208 0.66014802 0.14092001
-0.54604274 -1.1658618 0.44250894 -0.7677474 0.63817531 -0.057412844 0.14092001
-0.64996427 -0.68277895 0.030290574 -0.56782234 -0.13683699 0.81169784 0.14092001
-0.65739959 -1.1719247 0.069503427 -0.70913905 0.36594337 0.6026668 0.14092001
-0.67296427 -1.0658666 0.016079497 -0.57158422 0.16906759 0.80293691 0.14092001
-0.86171299 -0.20980945 -0.15582554 -0.73534715 0.4394379 0.51590586 0.14092001
-0.85291159 -0.6520775 -0.06048182 -0.27352452 -0.0086015798 0.96182656 0.14092001
-0.64317566 -1.171563 0.086830996 -0.7270568 0.39669096 0.56037903 0.14092001
-0.6677193 -1.3011739 0.2493979 -0.76252937 0.63925523 0.099507198 0.14092001
-0.65774238 -0.98644418 0.013688904 -0.53635699 0.092730358 0.83888155 0.14092001
-1.3924178 -0.904998 -0.17880397 -0.23842639 -0.39278674 0.88818437 0.14092001
-0.88309324 -0.68021965 -0.068474323 -0.22903268 -0.0051392615 0.97340518 0.14092001
-1.0790291 -1.1039487 -0.16634834 -0.32854387 -0.31078202 0.89189321 0.14092001
-0.85125977 -0.20402975 -0.14521317 -0.76463157 0.40380487 0.50227499 0.14092001
-0.93318743 -0.24172415 -0.20800878 -0.54062396 0.61581159 0.57315075 0.14092001
-1.2127689 -0.98694378 -0.16529471 -0.2394716 -0.33598942 0.91091406 0.14092001
-0.63168567 -0.69810772 0.040855903 -0.59268892 -0.14008926 0.79315495 0.14092001
-0.61234909 -0.68258131 0.059298974 -0.6374476 -0.16456284 0.75271487 0.14092001
-0.84116924 -0.6833511 -0.057642996 -0.27395359 -0.021575099 0.96150088 0.14092001
-1.1206454 -1.0704786 -0.16894017 -0.29782572 -0.32729733 0.89675879 0.14092001
-0.96615821 -0.38821945 -0.13171551 -0.33719096 0.34749761 0.87495583 0.14092001
-0.63848805 -1.2060336 0.12433483 -0.76082736 0.4817799 0.43477568 0.14092001
-0.8102392 -0.34900945 -0.049038753 -0.65464503 0.066435032 0.75301147 0.14092001
-0.75302261 -0.43822041 -0.0037289711 -0.62396902 -0.087989599 0.77647954 0.14092001
-0.79510605 -0.45814779 -0.034859136 -0.52987087 -0.013911485 0.84796423 0.14092001
-0.5772205 -0.70700598 0.085741058 -0.69133919 -0.16821051 0.70267731 0.14092001
-0.8088271 -1.0336883 -0.058942113 -0.37264314 -0.0055460543 0.92795813 0.14092001
-0.77291423 -1.0866505 -0.041204907 -0.45792574 0.057647128 0.88711941 0.14092001
-0.70674497 -0.71216398 -0.0074551767 -0.45160905 -0.085533544 0.88810658 0.14092001
-0.55168027 -1.1414211 0.22388831 -0.80947322 0.52040523 0.27190346 0.14092001
-1.0635718 -1.2362734 -0.21412098 -0.46599209 -0.38997865 0.79420906 0.14092001
-0.43078649 -0.9318583 0.3335135 -0.95753646 0.20547129 0.20225091 0.14092001
-1.0202357 -0.36395392 -0.16299102 -0.28398696 0.47553283 0.83259827 0.14092001
-1.4442235 -1.8008885 1.0780456 -0.73370004 0.46283913 -0.49745771 0.14092001
-1.1710621 -1.2293223 -0.27380279 -0.4473106 -0.50954914 0.73503256 0.14092001
-1.0588526 -0.36023042 -0.17749175 -0.23836739 0.53049928 0.81348109 0.14092001
-1.041533 -0.28090373 -0.23998329 -0.31537059 0.71989787 0.61829484 0.14092001
