# .PCD v0.7 - Point Cloud Data file format
VERSION 0.7
FIELDS x y z normal_x normal_y normal_z curvature
SIZE 4 4 4 4 4 4 4
TYPE F F F F F F F
COUNT 1 1 1 1 1 1 1
WIDTH 113
HEIGHT 1
VIEWPOINT 0 0 0 1 0 0 0
POINTS 113
DATA ascii
-0.85121846 -0.63509858 -0.04994411 0.52761608 -0.085069641 -0.84521264 0.11126706
-1.0752316 -1.1110712 -0.18721454 0.27884108 -0.15829016 -0.94720215 0.11126706
-0.90734375 -0.44904587 -0.11752995 0.25858077 -0.33159557 -0.90729284 0.11126706
-0.76565492 -0.38843071 -0.11653318 0.15518251 -0.61058587 -0.77659726 0.11126706
-0.85249335 -0.64569324 -0.04978146 0.53545684 -0.068892419 -0.84174806 0.11126706
-0.86719471 -0.67001498 -0.057826493 0.5369094 -0.023447834 -0.84331399 0.11126706
-0.68858552 -0.82132214 0.16419576 0.93669873 -0.067304224 -0.34360683 0.11126706
-0.67045796 -0.65005565 0.13013579 0.81654745 -0.32340616 -0.47818276 0.11126706
-0.66114634 -0.53614748 0.052127384 0.56354076 -0.5511595 -0.61534137 0.11126706
-1.078665 -1.1774524 -0.17257367 0.2282262 -0.28546852 -0.93081713 0.11126706
-0.75609016 -1.0607791 0.024669662 0.82714546 0.01119461 -0.56187636 0.11126706
-1.1586143 -1.0128715 -0.22117522 0.25650185 -0.056850199 -0.96487039 0.11126706
-0.86619663 -0.40246642 -0.12815954 0.18510683 -0.46524704 -0.86561 0.11126706
-0.68808901 -1.169459 0.34895825 0.98802018 -0.13492282 0.074912883 0.11126706
-0.80046725 -0.36274788 -0.14219621 0.10848726 -0.6017983 -0.7912454 0.11126706
-0.6879015 -0.66590148 0.11109623 0.81018436 -0.26557237 -0.52256346 0.11126706
-0.99910867 -1.1747373 -0.14910737 0.33749762 -0.22766182 -0.91338134 0.11126706
-0.78103328 -0.55919647 -0.02335446 0.50164026 -0.30695209 -0.80878764 0.11126706
-0.64737362 -0.34130803 -0.14669213 0.045266803 -0.76967549 -0.63682848 0.11126706
-0.86570054 -0.60129046 -0.062473528 0.4801628 -0.11927216 -0.86903268 0.11126706
-0.97562349 -1.2429045 1.0654159 0.83117545 -0.26928496 0.4864493 0.11126706
-0.70445812 -0.86024308 0.61032063 0.95177907 -0.13948289 0.27324182 0.11126706
-0.85994238 -0.64604497 -0.054440849 0.52733588 -0.060719546 -0.84748453 0.11126706
-1.1620545 -0.94710773 -0.22323495 0.28617814 0.021375893 -0.95793796 0.11126706
-0.85229862 -1.1075698 -0.077530056 0.61798757 -0.041294325 -0.78510261 0.11126706
-1.1275964 -0.33112597 -0.19931136 0.12235769 -0.29933801 -0.94626915 0.11126706
-0.68011713 -0.37258351 -0.11519857 0.11548182 -0.72156787 -0.68264467 0.11126706
-0.82011247 -0.27704111 -0.21472327 -0.028314579 -0.67363453 -0.73852205 0.11126706
-1.0599189 -1.2116975 -0.15629324 0.22588922 -0.34284651 -0.91182804 0.11126706
-0.60508847 -0.62231803 0.27187741 0.86615443 -0.47530121 -0.1544839 0.11126706
-0.77444547 -0.3456817 -0.1529429 0.07334774 -0.64895111 -0.75728631 0.11126706
-0.74700999 -0.95663744 0.045169909 0.83855337 0.048507731 -0.54265577 0.11126706
-1.2672031 -0.80661774 -0.24485396 0.27531278 0.094572067 -0.95669168 0.11126706
-0.77183294 -0.66140765 0.012743667 0.65942496 -0.1429534 -0.73805356 0.11126706
-0.66551292 -0.55092174 0.06086918 0.60052967 -0.51761872 -0.60945463 0.11126706
-0.88757485 -0.3372024 -0.1699878 0.079037458 -0.54037023 -0.83770704 0.11126706
-0.71369547 -1.1318032 0.52683842 0.96005666 -0.13205548 0.24668308 0.11126706
-0.76202565 -0.65414894 0.020083353 0.66655815 -0.16814655 -0.72624171 0.11126706
-0.69920731 -1.0659814 0.49910843 0.97139156 -0.1011395 0.21487041 0.11126706
-0.77731329 -0.63657713 0.0028110275 0.62238461 -0.17503035 -0.76289046 0.11126706
-0.88935876 -0.42311612 -0.12330949 0.2194847 -0.40072188 -0.88952148 0.11126706
-0.81791312 -0.7226423 -0.021077275 0.63666552 -0.0099698668 -0.77107561 0.11126706
-0.8551681 -0.63104087 -0.052794792 0.51960802 -0.086583398 -0.85000634 0.11126706
-1.0202994 -1.1803924 -0.15503 0.30301118 -0.25253183 -0.91891885 0.11126706
-1.032962 -1.0720807 -0.17775215 0.35005167 -0.069904238 -0.93411845 0.11126706
-1.0635755 -1.1096988 -0.18391287 0.29316428 -0.14844035 -0.9444682 0.11126706
-0.85840893 -0.64979655 -0.053219244 0.53209698 -0.057270642 -0.84474427 0.11126706
-0.66253144 -0.61188293 0.11458801 0.75595617 -0.4082956 -0.51168835 0.11126706
-0.712484 -0.59680092 0.045915704 0.65077996 -0.3492837 -0.67415607 0.11126706
-0.72780722 -0.67519677 0.061037164 0.74951625 -0.18522997 -0.63554329 0.11126706
-0.92020929 -1.1335547 -0.12043442 0.48500714 -0.10712229 -0.86792445 0.11126706
-0.76553547 -0.67966539 0.021939535 0.68858379 -0.12395731 -0.71448368 0.11126706
-0.68500012 -0.44521689 -0.044855718 0.29325077 -0.64658695 -0.70422244 0.11126706
-0.68803239 -1.0064688 0.18175958 0.97254395 -0.013463833 -0.23232941 0.11126706
-0.9528023 -0.29381093 -0.20185491 0.030242441 -0.53576487 -0.84382546 0.11126706
-0.75928241 -0.38167161 -0.12072707 0.14100502 -0.62616825 -0.76683176 0.11126706
-1.0830463 -1.1814529 -0.17237756 0.21984096 -0.29644844 -0.92940211 0.11126706
-0.51631874 -0.23301156 -0.32103407 -0.15422651 -0.85213655 -0.50007749 0.11126706
-0.93248677 -0.36271548 -0.16062573 0.12628248 -0.45117271 -0.88345677 0.11126706
-0.80564916 -0.36339673 -0.14242129 0.1103397 -0.59518546 -0.79597706 0.11126706
-0.7181232 -0.40122032 -0.095288046 0.18155771 -0.65327674 -0.73502809 0.11126706
-0.67706931 -1.0528163 0.35601926 0.99540079 -0.072211906 0.062949948 0.11126706
-1.1631335 -0.90684772 -0.22184338 0.30082363 0.058963396 -0.95185524 0.11126706
-2.0029094 -0.96226549 -0.26888517 -0.11010017 -0.65099853 -0.75105184 0.11126706
-0.67408836 -0.88083047 0.46171206 0.98205805 -0.11555456 0.14902714 0.11126706
-0.75667661 -0.65479076 0.025214283 0.6758064 -0.17484468 -0.71604121 0.11126706
-0.79787546 -0.56399786 -0.031914875 0.49422252 -0.27246106 -0.8255356 0.11126706
-0.98047 -0.85338342 -0.14107102 0.46011549 0.11848076 -0.87991822 0.11126706
-0.67722714 -0.71060491 0.15321779 0.88599414 -0.21181507 -0.41249087 0.11126706
-0.69514704 -0.84120703 0.58710939 0.95534456 -0.14967653 0.2547816 0.11126706
-1.0133302 -0.99891716 -0.17105442 0.40170014 0.030296039 -0.91526997 0.11126706
-1.1708555 -0.96391773 -0.22597271 0.27219114 -0.0014384568 -0.96224213 0.11126706
-0.70352513 -0.72807485 0.1102483 0.85053158 -0.14438027 -0.50571769 0.11126706
-0.85249335 -0.64569324 -0.04978146 0.53545684 -0.068892419 -0.84174806 0.11126706
-0.83474529 -0.65256804 -0.037472881 0.5625453 -0.078490026 -0.82303226 0.11126706
-0.86116868 -0.63508064 -0.056064866 0.5167616 -0.074457891 -0.85288537 0.11126706
-0.85994238 -0.64604497 -0.054440849 0.52733588 -0.060719546 -0.84748453 0.11126706
-0.85395426 -0.91058558 -0.066839904 0.62672549 0.096258938 -0.77327186 0.11126706
-0.91120368 -0.57314152 -0.089089878 0.41553712 -0.11284848 -0.90254867 0.11126706
-0.88223803 -0.56500918 -0.076705858 0.42701915 -0.15819024 -0.89029801 0.11126706
-0.72918272 -0.69104981 0.063704871 0.76475579 -0.15852888 -0.62451357 0.11126706
-0.70269012 -0.67912126 0.09496621 0.80066192 -0.21878469 -0.55773985 0.11126706
-0.87829429 -0.53746641 -0.080558136 0.39564782 -0.20988615 -0.89409763 0.11126706
-0.96555811 -0.33527219 -0.17882541 0.091746643 -0.45937094 -0.88349354 0.11126706
-0.93518192 -0.42689815 -0.13299304 0.22277485 -0.33685398 -0.91482282 0.11126706
-0.72623795 -1.0381806 0.076090656 0.89345127 0.012253419 -0.448993 0.11126706
-0.68824542 -0.67415452 0.1146721 0.82114702 -0.25099093 -0.51256329 0.11126706
-1.1725883 -0.33715808 -0.20376484 0.13933526 -0.24629399 -0.95912719 0.11126706
-0.81791312 -0.7226423 -0.021077275 0.63666552 -0.0099698668 -0.77107561 0.11126706
-0.86522627 -0.4081946 -0.12489904 0.19502588 -0.45701915 -0.86781245 0.11126706
-0.88314331 -0.32987392 -0.17441869 0.066618599 -0.5552991 -0.82897818 0.11126706
-0.6058349 -0.5681656 0.1605058 0.72177058 -0.58346993 -0.37230369 0.11126706
-0.60455978 -0.62193841 0.27369329 0.86609924 -0.47656357 -0.1508617 0.11126706
-1.2244467 -0.35589331 -0.20802182 0.1683912 -0.16923948 -0.9710831 0.11126706
-0.70265138 -0.33243147 -0.16017243 0.036817379 -0.72799075 -0.68459767 0.11126706
-0.78899682 -1.0761679 -0.018176835 0.75350344 0.0031693003 -0.65743631 0.11126706
-1.1282551 -1.2145677 -0.16878922 0.14070429 -0.39368153 -0.90841466 0.11126706
-0.87825769 -0.67394048 -0.064700246 0.52677655 -0.0091862911 -0.84995413 0.11126706
-0.89552331 -0.70504475 -0.075887322 0.52400148 0.035447128 -0.85097939 0.11126706
-0.67095095 -0.97017366 0.31310418 0.99837184 -0.054683644 -0.016229743 0.11126706
-0.66948158 -0.93763781 0.35986248 0.99649668 -0.072964601 0.04087159 0.11126706
-0.84793186 -0.61846918 -0.049864374 0.51521915 -0.11329311 -0.84953743 0.11126706
-0.94607973 -1.1022639 -0.1374104 0.45457926 -0.070312403 -0.8879267 0.11126706
-0.78692359 -0.64791769 -0.0026373048 0.62197542 -0.14357828 -0.76976091 0.11126706
-0.97257233 -1.1771766 -0.13806967 0.37694702 -0.21594629 -0.90070981 0.11126706
-0.92020929 -1.1335547 -0.12043442 0.48500714 -0.10712229 -0.86792445 0.11126706
-1.0890384 -1.0829457 -0.19539282 0.28111017 -0.11970964 -0.95217997 0.11126706
-0.87209743 -1.1426462 -0.089207411 0.57127297 -0.10008583 -0.81463492 0.11126706
-0.69648731 -0.66414893 0.097487465 0.79200929 -0.25408658 -0.55512279 0.11126706
-0.82471126 -0.96091926 -0.047361471 0.67956215 0.07903605 -0.72934806 0.11126706
-1.0988903 -0.3194122 -0.19991985 0.10190098 -0.34818375 -0.93187135 0.11126706
-0.92471898 -0.39262542 -0.14485297 0.17123587 -0.40988982 -0.89591777 0.11126706
-1.2705426 -0.83842081 -0.24858269 0.26422811 0.072716929 -0.96171498 0.11126706
