# .PCD v0.7 - Point Cloud Data file format
VERSION 0.7
FIELDS x y z normal_x normal_y normal_z curvature
SIZE 4 4 4 4 4 4 4
TYPE F F F F F F F
COUNT 1 1 1 1 1 1 1
WIDTH 83
HEIGHT 1
VIEWPOINT 0 0 0 1 0 0 0
POINTS 83
DATA ascii
0.19711113 -0.13397704 1.0500261 -0.41889918 0.186662 0.88863987 0.043900535
0.19620377 0.52798098 0.8768177 -0.51774013 0.47860932 0.70913911 0.043900535
0.11800039 -0.012949221 0.99252445 -0.41495222 0.1329461 0.90007776 0.043900535
0.30341113 0.26891285 1.0329033 -0.4350765 0.15581049 0.88680977 0.043900535
0.23865649 0.39226773 0.96894461 -0.47601023 0.27524263 0.83525789 0.043900535
0.79850334 -0.18929435 1.3393248 -0.39507461 0.37534973 0.83846802 0.043900535
0.0010715985 -0.023836156 0.93823653 -0.44107211 0.1126662 0.89037168 0.043900535
0.18113913 0.49997088 0.88412857 -0.50675994 0.44955623 0.73559064 0.043900535
-0.22064826 0.27015859 0.75951147 -0.48216054 0.32895148 0.81198037 0.043900535
0.40340817 0.3688111 1.0677867 -0.48524538 0.14754021 0.86184037 0.043900535
-0.23880784 -0.083153181 0.81016648 -0.53152937 0.020996159 0.84677958 0.043900535
0.42875478 -0.40166691 1.2932138 -0.40738684 0.60904312 0.6805163 0.043900535
1.06993 0.15954208 1.4433906 -0.53980762 -0.17023379 0.82439566 0.043900535
-0.14522904 -0.27725396 0.87846291 -0.57678908 0.061111927 0.81460398 0.043900535
-0.13034552 -0.43613601 0.91116905 -0.6622054 0.15641657 0.73281503 0.043900535
0.2383415 -0.37214789 1.1567848 -0.46794349 0.44527698 0.76338542 0.043900535
0.35675126 0.63689685 0.93195748 -0.60510486 0.47780022 0.636832 0.043900535
0.56716579 -0.10643438 1.2070888 -0.38546401 0.23439294 0.89245588 0.043900535
-0.031263366 -0.18955489 0.94167233 -0.49553362 0.11412947 0.861058 0.043900535
0.31809145 0.098754428 1.064695 -0.39701685 0.12418901 0.90937048 0.043900535
0.41944045 0.29567704 1.0870073 -0.45443365 0.10916371 0.8840664 0.043900535
1.2933818 -0.49794599 2.3447328 -0.26003858 0.96216649 0.081336521 0.043900535
0.13625379 0.46981984 0.87208796 -0.4909521 0.44049811 0.75161654 0.043900535
0.35751981 0.18512768 1.0709159 -0.41341311 0.11548024 0.90319097 0.043900535
0.37535927 0.34256941 1.0568762 -0.46941251 0.15231954 0.86974174 0.043900535
0.31379348 0.45332944 0.99330389 -0.51291543 0.28073525 0.81123698 0.043900535
0.10655766 0.15709391 0.96055675 -0.41689017 0.16416454 0.89400929 0.043900535
-0.21270822 -0.12552467 0.82760376 -0.53574741 0.019128852 0.84416163 0.043900535
0.19249962 0.35427207 0.95557964 -0.45876876 0.26693603 0.84751189 0.043900535
-0.013026755 -0.35200119 0.98391032 -0.56211913 0.21616672 0.798307 0.043900535
-0.23209789 -0.19303514 0.81526214 -0.56997007 -0.0056288531 0.82164615 0.043900535
2.0103736 0.15834308 2.7592919 -0.88894105 -0.39722738 0.22802241 0.043900535
-0.0019991579 -0.024430601 0.93678856 -0.44192678 0.11195511 0.89003754 0.043900535
0.16229118 -0.21251824 1.0512074 -0.4460842 0.22400917 0.86650378 0.043900535
0.14597605 0.5253318 0.84201366 -0.50539339 0.51670837 0.69107884 0.043900535
0.3403331 0.045570228 1.0817262 -0.3914046 0.13117856 0.91082084 0.043900535
0.054644499 0.027421432 0.95718968 -0.42310885 0.12758204 0.89705169 0.043900535
0.023959856 0.048129018 0.93965656 -0.42773506 0.12933733 0.89460301 0.043900535
0.11800039 -0.012949221 0.99252445 -0.41495222 0.1329461 0.90007776 0.043900535
0.055995565 -0.049681917 0.96854246 -0.43244955 0.12391657 0.89310247 0.043900535
0.70414454 0.37110212 1.2473022 -0.53998089 -0.075503252 0.8382839 0.043900535
1.0479144 0.25042194 1.4519986 -0.56243336 -0.24520926 0.78964621 0.043900535
-0.13767119 -0.2762298 0.88371122 -0.57330513 0.06692633 0.81660402 0.043900535
-0.15099011 -0.23365359 0.87160605 -0.55739415 0.048555966 0.8288269 0.043900535
0.075381204 0.078870609 0.95925659 -0.41729936 0.13930067 0.89802927 0.043900535
0.12410372 0.0099297948 0.99195218 -0.41198564 0.1328412 0.90145499 0.043900535
0.31021303 0.35598382 1.0188689 -0.46814021 0.20010068 0.86069995 0.043900535
0.40340817 0.3688111 1.0677867 -0.48524538 0.14754021 0.86184037 0.043900535
0.3022505 0.189376 1.0450265 -0.41300529 0.13220078 0.90108246 0.043900535
-0.26988059 -0.10588431 0.79042143 -0.55091 -0.0024988735 0.83456093 0.043900535
-0.22487931 -0.11697181 0.8196888 -0.53733939 0.015491164 0.84322381 0.043900535
0.63545579 -0.093170106 1.2332855 -0.38940305 0.22363131 0.89350677 0.043900535
0.73443949 -0.15348585 1.2953572 -0.39281729 0.31029114 0.86568701 0.043900535
0.31107271 0.49722555 0.97462302 -0.53320742 0.33217517 0.77804208 0.043900535
0.27358773 0.47414327 0.95941913 -0.51510477 0.33782279 0.78774542 0.043900535
0.31379348 0.45332944 0.99330389 -0.51291543 0.28073525 0.81123698 0.043900535
0.23670778 0.39416957 0.96720177 -0.476569 0.27836636 0.83390296 0.043900535
0.25954416 0.36923259 0.98770642 -0.46881446 0.24120909 0.84972417 0.043900535
0.47237644 0.45118466 1.095547 -0.54204232 0.13925011 0.82873368 0.043900535
0.30183977 0.54578567 0.94429278 -0.55214572 0.40458465 0.72900367 0.043900535
0.57092547 -0.24727218 1.2615201 -0.38524482 0.42005748 0.82166791 0.043900535
0.47175869 -0.26317436 1.2225484 -0.39530784 0.41046107 0.82173806 0.043900535
0.45433128 0.13747352 1.1200801 -0.40735438 0.09134876 0.90869015 0.043900535
1.0987694 0.15800758 1.4621878 -0.54825902 -0.18301363 0.81603801 0.043900535
-0.0018800867 -0.02270657 0.93663061 -0.44161421 0.11218084 0.8901642 0.043900535
-0.1621158 -0.039734449 0.85362083 -0.49197167 0.066195093 0.86809105 0.043900535
0.24046421 -0.37780017 1.1614375 -0.46832824 0.4550038 0.75739038 0.043900535
-0.13034552 -0.43613601 0.91116905 -0.6622054 0.15641657 0.73281503 0.043900535
0.37577519 0.34263331 1.0570894 -0.46948978 0.15209669 0.869739 0.043900535
-0.090146475 -0.33361933 0.92463315 -0.5848524 0.13171218 0.80037463 0.043900535
0.83662444 -0.03108383 1.3114947 -0.42615363 0.13627754 0.8943274 0.043900535
0.38315672 0.59608668 0.9819752 -0.60106713 0.38290122 0.70150191 0.043900535
0.13862082 0.43508425 0.89236873 -0.48143137 0.39090544 0.78448504 0.043900535
-0.2081545 -0.17099331 0.83138186 -0.55142617 0.012428536 0.83413112 0.043900535
0.2283169 0.43097666 0.94882369 -0.4901382 0.32305467 0.80956793 0.043900535
0.18022896 -0.1761387 1.0512651 -0.43190584 0.20623913 0.87802207 0.043900535
0.12888259 -0.15669373 1.0216495 -0.43891174 0.17517067 0.88128978 0.043900535
0.35251141 0.30818364 1.0507635 -0.45263088 0.14917488 0.8791315 0.043900535
0.96685761 0.1335842 1.3757066 -0.501288 -0.093507238 0.86021322 0.043900535
0.70539546 0.00055149582 1.2462846 -0.40815929 0.12014192 0.90497065 0.043900535
0.41885406 -0.076159604 1.1362449 -0.38653517 0.19328424 0.90179366 0.043900535
0.57694739 0.0088606039 1.1884472 -0.3943924 0.12951072 0.90977007 0.043900535
0.3536531 -0.39320907 1.2410501 -0.4306109 0.55278993 0.71344066 0.043900535
