# .PCD v0.7 - Point Cloud Data file format
VERSION 0.7
FIELDS x y z normal_x normal_y normal_z curvature
SIZE 4 4 4 4 4 4 4
TYPE F F F F F F F
COUNT 1 1 1 1 1 1 1
WIDTH 135
HEIGHT 1
VIEWPOINT 0 0 0 1 0 0 0
POINTS 135
DATA ascii
-1.2834235 -1.0279999 0.14924049 -0.46935648 0.31006119 0.82678086 0.16774535
-1.3288566 -1.0750949 0.13971208 -0.46804112 0.25776485 0.84527791 0.16774535
-1.4035012 -0.99333048 0.078257225 -0.3793835 0.27251583 0.8841964 0.16774535
-1.3696425 -1.098291 0.12428913 -0.45269617 0.22644609 0.86243165 0.16774535
-1.3354869 -1.1218225 0.14938647 -0.48793814 0.22778279 0.84263361 0.16774535
-0.99965465 -0.49722657 -0.16638868 0.01416061 0.77494931 0.63186473 0.16774535
-0.93473786 -1.1062262 0.5968082 -0.84485406 0.44645706 0.29478416 0.16774535
-1.1516247 -1.7345833 0.44986731 -0.8681224 0.067512251 0.49173731 0.16774535
-1.1698688 -1.1586661 0.28202081 -0.64979964 0.28640133 0.70408428 0.16774535
-1.0144321 -0.62516701 -0.019327009 -0.13304909 0.7316817 0.66853559 0.16774535
-1.9977949 -1.1782378 -0.064798266 -0.16620098 0.10259015 0.98074079 0.16774535
-1.3592055 -1.0860196 0.12647559 -0.45357069 0.23775165 0.85892248 0.16774535
-1.4174752 -1.9407448 0.18433098 -0.53590083 0.061487764 0.84203893 0.16774535
-1.7787538 -1.667877 0.020384643 -0.23103681 0.076681152 0.96991855 0.16774535
-1.6480871 -0.66613752 -0.10449579 -0.14419743 0.3715418 0.91714984 0.16774535
-1.6400436 -3.2687697 1.0687034 -0.26630378 0.93809032 0.22151491 0.16774535
-2.4838493 -2.3285081 0.27324128 0.3367385 0.48604256 0.80645508 0.16774535
-1.6174403 -1.8127561 0.078834459 -0.33705392 0.069810145 0.93889362 0.16774535
-1.3202354 -1.0914961 0.14954682 -0.48304549 0.25203916 0.83853644 0.16774535
-1.3270251 -1.0865247 0.14418602 -0.47558025 0.25183386 0.84285414 0.16774535
-1.3001946 -1.0903827 0.16098928 -0.49676466 0.26219374 0.82733262 0.16774535
-1.3590931 -1.0546603 0.11753976 -0.43732002 0.25598946 0.86210245 0.16774535
-1.3236055 -1.1041244 0.1513245 -0.48745537 0.24310109 0.83862334 0.16774535
-2.0876212 -2.3955712 3.2804639 -0.80663401 0.26328215 -0.52917302 0.16774535
-0.9473747 -1.2261813 0.75824398 -0.9298836 0.33697098 0.14753662 0.16774535
-0.98931473 -1.1541195 0.52179414 -0.83308947 0.38561788 0.39656118 0.16774535
-1.0501499 -1.8903179 0.91092235 -0.9960705 0.086502373 0.018996747 0.16774535
-1.0017265 -1.0864297 0.43673334 -0.75626898 0.43545967 0.48829514 0.16774535
-1.6177486 -1.8781073 0.0839836 -0.32739687 0.082015812 0.94132072 0.16774535
-1.5629067 -0.66911584 -0.08937142 -0.15167971 0.40577444 0.90129924 0.16774535
-1.5687389 -1.821092 0.098209679 -0.38123289 0.063379824 0.92230392 0.16774535
-1.5927659 -1.7007797 0.080918133 -0.37044597 0.053713899 0.92729962 0.16774535
-0.87993795 -0.9355278 0.45178851 -0.66700655 0.63349253 0.39216009 0.16774535
-3.2331717 -1.2568921 0.012192479 0.24073622 0.41017631 0.87965983 0.16774535
-0.94035441 -1.0705019 0.53228551 -0.80056083 0.47846407 0.36079708 0.16774535
-1.4009788 -1.2123756 0.13260606 -0.47675782 0.15827999 0.86466724 0.16774535
-1.4330064 -1.0948603 0.092221208 -0.41113743 0.2037331 0.88851494 0.16774535
-1.9722601 -0.75037217 -0.12843329 -0.14093223 0.23132469 0.96261466 0.16774535
-1.6773065 -2.0967155 0.093742155 -0.22566773 0.16258281 0.96054196 0.16774535
-1.2126918 -0.89920706 0.1282948 -0.40598118 0.44145358 0.80018622 0.16774535
-1.4570745 -1.8482829 0.15434684 -0.49454048 0.052752096 0.86755228 0.16774535
-1.4853439 -1.720103 0.13166068 -0.46953478 0.045851067 0.88172263 0.16774535
-1.157696 -1.0753014 0.25553042 -0.599298 0.35005459 0.71993309 0.16774535
-1.2228884 -0.97741938 0.16286147 -0.46989092 0.37942022 0.79702121 0.16774535
-1.656919 -1.7881032 0.06353946 -0.30603203 0.072582133 0.94925034 0.16774535
-1.5297102 -0.70574057 -0.067028791 -0.17618732 0.39690095 0.90079278 0.16774535
-1.019865 -0.76562166 0.12455191 -0.32153311 0.66359001 0.67547375 0.16774535
-1.7792904 -0.58779091 -0.15363485 -0.1036129 0.37272111 0.92214066 0.16774535
-1.1998907 -0.55403972 -0.11399468 -0.063230373 0.6614126 0.74735218 0.16774535
-1.2809391 -0.73189437 0.0042862296 -0.22873704 0.51304543 0.82732326 0.16774535
-1.4881318 -0.75700146 -0.035849541 -0.21310458 0.38286236 0.89888978 0.16774535
-1.8129021 -0.62538189 -0.14326222 -0.11803549 0.3382335 0.93363041 0.16774535
-1.3676027 -0.54490101 -0.13521837 -0.066666551 0.58043671 0.81157178 0.16774535
-1.041296 -1.6568682 0.75070387 -0.98035115 0.11503238 0.16024712 0.16774535
-1.2815592 -0.72892004 0.0022682806 -0.22593565 0.51461846 0.82711601 0.16774535
-1.3354869 -1.1218225 0.14938647 -0.48793814 0.22778279 0.84263361 0.16774535
-1.3804142 -1.1667614 0.13486099 -0.47522861 0.18644255 0.85988194 0.16774535
-1.3917216 -1.6680943 0.18579558 -0.56664127 0.045659587 0.82269853 0.16774535
-1.3101192 -1.7165668 0.25250283 -0.6643616 0.046804428 0.74594438 0.16774535
-1.2026579 -1.0959369 0.22892106 -0.57676256 0.30967706 0.75593984 0.16774535
-0.99093384 -1.0741926 0.4423773 -0.7541126 0.45158949 0.47684494 0.16774535
-1.308252 -0.77468252 0.021387789 -0.26122567 0.46804148 0.84421462 0.16774535
-1.6630595 -1.8162315 0.063826226 -0.29661852 0.07849922 0.95176435 0.16774535
-0.96886665 -1.0794002 0.48532349 -0.78179789 0.45823774 0.42285958 0.16774535
-1.8042023 -1.6334426 0.011764514 -0.21922559 0.077006221 0.97263056 0.16774535
-1.5475256 -1.6273142 0.09621688 -0.41330808 0.048328985 0.90930784 0.16774535
-1.0647005 -0.76096314 0.099954352 -0.30372262 0.63561743 0.70974857 0.16774535
-0.88712847 -1.0454693 0.63693511 -0.82488704 0.51601183 0.23085308 0.16774535
-0.93864948 -1.0910182 0.56422198 -0.82497156 0.45975482 0.32870573 0.16774535
-1.0865867 -1.0648024 0.31506947 -0.65305114 0.40181762 0.64192432 0.16774535
-2.0325968 -1.0425797 -0.086308487 -0.15723854 0.12674454 0.9793936 0.16774535
-1.5672174 -1.1995879 0.053144101 -0.36307383 0.12252736 0.92366904 0.16774535
-1.0130565 -1.5607013 0.99808627 -0.98790181 0.15245694 -0.028405707 0.16774535
-1.8829024 -1.77484 0.010993592 -0.14012566 0.1174783 0.98313969 0.16774535
-1.5564098 -0.50819314 -0.17274868 -0.054213628 0.51362479 0.85630047 0.16774535
-1.3639379 -0.48731619 -0.17802657 -0.021903455 0.61445349 0.78864896 0.16774535
-1.8697543 -1.6171205 -0.0030048832 -0.18055902 0.086639769 0.9797408 0.16774535
-1.9496039 -1.908039 0.023592053 -0.060966898 0.17263387 0.98309743 0.16774535
-1.4570745 -1.8482829 0.15434684 -0.49454048 0.052752096 0.86755228 0.16774535
-2.0895822 -1.522633 -0.041334338 -0.080697186 0.11878844 0.98963493 0.16774535
-1.3592055 -1.0860196 0.12647559 -0.45357069 0.23775165 0.85892248 0.16774535
-1.5387609 -1.9414676 0.120266 -0.39697653 0.080787234 0.91426641 0.16774535
-1.3590519 -0.70417327 -0.031801924 -0.19432476 0.48569146 0.85225683 0.16774535
-1.2004325 -1.1248648 0.2422469 -0.59873235 0.29184702 0.74588531 0.16774535
-1.3233907 -1.0965612 0.14923733 -0.48356619 0.24760544 0.83955657 0.16774535
-1.3338499 -1.0666516 0.13439392 -0.46001273 0.26047742 0.84884614 0.16774535
-1.2672647 -0.5039885 -0.16148937 -0.024704546 0.65168315 0.75808889 0.16774535
-1.261994 -1.8039987 0.30526477 -0.73219568 0.046183225 0.67952675 0.16774535
-1.1205906 -1.489242 0.45598036 -0.85749364 0.1373861 0.49581224 0.16774535
-1.163932 -1.7344478 0.42889172 -0.85247153 0.064923584 0.51872659 0.16774535
-1.3032659 -1.71061 0.25829285 -0.67223692 0.047773514 0.73879308 0.16774535
-1.054623 -1.6847702 0.69690078 -0.97205639 0.10402507 0.2104404 0.16774535
-1.3294837 -1.7650559 0.23860681 -0.64392704 0.04368557 0.76383865 0.16774535
-1.7743794 -0.64195359 -0.13219392 -0.12611498 0.34055066 0.93172973 0.16774535
-1.3528205 -1.0827214 0.12893862 -0.45610529 0.24242456 0.85627002 0.16774535
-1.2334923 -1.5612357 0.31501231 -0.73673826 0.082382515 0.67114067 0.16774535
-1.0444132 -1.5322707 0.65788096 -0.95487136 0.14862068 0.25716257 0.16774535
-1.4316952 -0.97024941 0.059555449 -0.353569 0.27385345 0.89442343 0.16774535
-1.4567742 -0.47178394 -0.19207613 -0.021007087 0.58058685 0.81392729 0.16774535
-1.1960995 -0.55221444 -0.11529982 -0.06123244 0.66421676 0.74502796 0.16774535
-1.6656674 -0.54623926 -0.16055277 -0.082138114 0.44238034 0.89305818 0.16774535
-1.3408796 -0.94614661 0.089258961 -0.38173577 0.33305132 0.86218011 0.16774535
-1.4776709 -1.7589647 0.13783094 -0.4762553 0.046963546 0.878052 0.16774535
-1.1817237 -1.679619 0.39463264 -0.82191056 0.069384754 0.56537491 0.16774535
-1.6123041 -1.8095416 0.080456913 -0.3420952 0.068449274 0.9371689 0.16774535
-1.7946864 -1.6182066 0.012770009 -0.22766583 0.07391385 0.97092998 0.16774535
-1.4104875 -0.46859789 -0.19342661 -0.013429387 0.6032967 0.79740375 0.16774535
-1.3566294 -1.1191342 0.13672122 -0.47151303 0.22036639 0.85388178 0.16774535
-1.3933903 -1.1514527 0.12450781 -0.45982429 0.18936752 0.86758375 0.16774535
-1.5797058 -1.7765616 0.090769574 -0.3755278 0.059067134 0.924927 0.16774535
-1.5752246 -1.7657523 0.091923073 -0.380674 0.057270188 0.92293411 0.16774535
-1.5229094 -1.7191989 0.11259716 -0.4328438 0.048326936 0.90017259 0.16774535
-1.5541008 -1.3900952 0.07840807 -0.39982823 0.07289388 0.91368699 0.16774535
-1.1982094 -0.46480271 -0.19717902 0.017083529 0.70040947 0.7135368 0.16774535
-1.0408463 -1.48412 0.64206219 -0.94657475 0.16767558 0.2754654 0.16774535
-1.2903188 -1.094372 0.16827489 -0.50633001 0.26457125 0.82075089 0.16774535
-1.5797615 -0.58966297 -0.12981804 -0.1046247 0.450394 0.88667858 0.16774535
-1.3780458 -0.58023924 -0.11177568 -0.094826922 0.55412775 0.82701284 0.16774535
-1.3192952 -0.49108785 -0.17382088 -0.019869784 0.63339829 0.77357084 0.16774535
-1.2165889 -0.64014572 -0.04467532 -0.14712532 0.60788274 0.78027731 0.16774535
-1.5072002 -1.9887919 0.13890539 -0.42552754 0.086113602 0.90083891 0.16774535
-1.8059248 -0.72482115 -0.10950434 -0.15397519 0.28204727 0.94696409 0.16774535
-0.86826694 -0.94394535 0.48732966 -0.69151062 0.63007295 0.3533003 0.16774535
-0.88945305 -1.0162323 0.57044625 -0.78319871 0.54808056 0.29361105 0.16774535
-1.2296538 -0.74317211 0.026502728 -0.24827406 0.53743744 0.80592865 0.16774535
-1.6187069 -1.9164264 0.087165534 -0.3202866 0.090842657 0.94295496 0.16774535
-1.064821 -1.7080033 0.66355735 -0.96525425 0.095937818 0.24306421 0.16774535
-1.2142117 -1.1302444 0.2333966 -0.59010464 0.2810131 0.75684088 0.16774535
-1.2595656 -1.7572072 0.30463526 -0.73137742 0.048395254 0.68025362 0.16774535
-1.7011843 -0.50243205 -0.1855288 -0.061156515 0.45698324 0.88737041 0.16774535
-1.6195178 -1.6933591 0.070162006 -0.34832269 0.05615636 0.93569106 0.16774535
-1.5870974 -1.4581853 0.069281101 -0.38012528 0.060379855 0.92296213 0.16774535
-1.0587159 -0.57996708 -0.074841894 -0.080819204 0.72402799 0.68501949 0.16774535
-1.0063874 -1.097034 0.43881828 -0.76234633 0.42414621 0.48880267 0.16774535
-1.4216835 -1.0626589 0.089647889 -0.40392065 0.22504269 0.88668138 0.16774535
