# .PCD v0.7 - Point Cloud Data file format
VERSION 0.7
FIELDS x y z normal_x normal_y normal_z curvature
SIZE 4 4 4 4 4 4 4
TYPE F F F F F F F
COUNT 1 1 1 1 1 1 1
WIDTH 87
HEIGHT 1
VIEWPOINT 0 0 0 1 0 0 0
POINTS 87
DATA ascii
0.30708817 -0.066889405 1.2180321 -0.31363094 0.17107534 0.93400687 0.064544663
-0.044572771 -0.13896735 1.056375 -0.55773294 0.21541648 0.80157954 0.064544663
0.29432285 -0.21702406 1.2445898 -0.30302489 0.21346031 0.92876834 0.064544663
-0.34495148 0.010260619 0.73029166 -0.76192391 0.19702843 0.61696982 0.064544663
-0.038894679 0.20578234 0.98632669 -0.60048509 0.13980271 0.78732008 0.064544663
-0.093163885 0.15122643 0.95324481 -0.63267303 0.14972885 0.75980663 0.064544663
0.14808379 -0.05384206 1.1502573 -0.43296045 0.17747608 0.88376892 0.064544663
-0.12418089 -0.10535725 0.98726118 -0.61649436 0.21031666 0.75875002 0.064544663
-0.24372607 -0.20749819 0.91424316 -0.66793388 0.25619292 0.69873422 0.064544663
-0.23482963 -0.49075902 1.0517021 -0.57612288 0.4030053 0.71110415 0.064544663
0.016046844 -0.1593706 1.1015285 -0.51215273 0.21772143 0.83084112 0.064544663
0.084571466 -0.27688658 1.1729473 -0.44052792 0.25605154 0.86044914 0.064544663
-0.11014552 -1.1012775 1.6938345 -0.076516762 0.83077651 0.55132169 0.064544663
0.34134918 -0.81292874 1.4824282 -0.095493652 0.50639141 0.85699981 0.064544663
0.25714529 -1.009382 1.6191183 -0.024445614 0.6646148 0.74678618 0.064544663
-0.40051162 -0.54165697 0.93357337 -0.63446069 0.45313844 0.62619901 0.064544663
-0.17730473 0.18576197 0.87003493 -0.69228649 0.15060085 0.70573282 0.064544663
0.12684436 0.1315946 1.1059051 -0.46914923 0.14237128 0.87156725 0.064544663
0.25417605 -0.50289291 1.3167446 -0.26592404 0.34025788 0.90194732 0.064544663
0.34760657 -0.15207082 1.2470754 -0.27444836 0.18964209 0.9427163 0.064544663
0.083733916 0.25869301 1.0612552 -0.51320028 0.1301305 0.84834635 0.064544663
-0.30847543 -0.24923617 0.86597228 -0.69266427 0.27909857 0.66507155 0.064544663
0.15050575 -0.056471203 1.1519688 -0.43082237 0.17798738 0.88471043 0.064544663
0.19079338 -0.055494484 1.1705623 -0.40100375 0.17531158 0.89914507 0.064544663
-0.35171854 -0.055464424 0.74382406 -0.75423473 0.21443787 0.62060159 0.064544663
-0.23268786 -0.53425014 1.0789386 -0.55617064 0.43167824 0.71016061 0.064544663
0.08337725 -0.08076828 1.1221125 -0.47686714 0.18865779 0.85849053 0.064544663
0.16732374 -0.18747157 1.1886799 -0.39901003 0.21500036 0.89138424 0.064544663
-0.36038885 -0.11775511 0.75580245 -0.74687642 0.2340598 0.62240791 0.064544663
-0.1335106 -0.098904908 0.9778201 -0.62360889 0.20897242 0.75328773 0.064544663
-0.3205117 -0.085674994 0.79095376 -0.733459 0.22012217 0.64310509 0.064544663
0.37747461 0.092239432 1.2140728 -0.27492431 0.13980323 0.95124745 0.064544663
0.16676709 0.08286377 1.1344321 -0.43407482 0.14829738 0.88858706 0.064544663
-0.20128714 0.0075550228 0.88853598 -0.68305296 0.18466495 0.70663816 0.064544663
-0.21866712 -0.079622649 0.89605701 -0.67906821 0.20951332 0.7035414 0.064544663
-0.32680815 -0.7216754 1.1456214 -0.49629098 0.58493835 0.64151573 0.064544663
-0.5020088 -0.45159438 0.75527626 -0.71316093 0.4026666 0.57381278 0.064544663
-0.039087925 -0.14655168 1.0622114 -0.55261618 0.21755604 0.8045401 0.064544663
-0.32769364 -0.56510252 1.0195624 -0.58988267 0.46314734 0.66146278 0.064544663
-0.036556412 -0.045251127 1.0385611 -0.56773877 0.18672967 0.80175102 0.064544663
0.17635366 0.13564248 1.1305509 -0.43139148 0.14008877 0.89122194 0.064544663
-0.048937496 -0.19972239 1.0705044 -0.5489592 0.23739062 0.80142963 0.064544663
0.61436611 -0.46097311 1.364929 -0.0572448 0.26034853 0.96381623 0.064544663
-0.23267947 -0.20642798 0.92432016 -0.6619634 0.25485414 0.70487857 0.064544663
-0.35467285 -0.89213264 1.3098814 -0.36669502 0.73147136 0.57487768 0.064544663
-0.045983687 0.20434 0.98114139 -0.60543627 0.14031404 0.78342766 0.064544663
-0.51660848 -0.50897408 0.77961707 -0.69446117 0.44083449 0.56867272 0.064544663
-0.35158673 -0.055551503 0.74401432 -0.75415617 0.21444844 0.62069345 0.064544663
0.06778542 -0.76983666 1.3958461 -0.26169994 0.55107635 0.79235595 0.064544663
0.35271564 -0.83609116 1.4974774 -0.079019271 0.51814449 0.85163504 0.064544663
0.47021538 -0.5828132 1.3902922 -0.11080993 0.3397162 0.93397754 0.064544663
-0.080526225 0.04883153 0.98457772 -0.61130649 0.16708307 0.77355516 0.064544663
-0.39879617 -0.52872825 0.92606515 -0.63979417 0.44395661 0.62734836 0.064544663
0.021602875 0.14155138 1.0408999 -0.54958814 0.14522849 0.822716 0.064544663
-0.33806065 -0.069766961 0.76512247 -0.74507236 0.21711121 0.63065827 0.064544663
0.11021761 0.1358545 1.0960937 -0.48226649 0.14239074 0.86437488 0.064544663
-0.056449313 -0.19870621 1.0650207 -0.55419958 0.23761505 0.79774803 0.064544663
0.096066564 0.17951983 1.0809513 -0.4970544 0.13727629 0.85679179 0.064544663
-0.46310267 -0.62467724 0.93553674 -0.61606735 0.52016371 0.5915156 0.064544663
-0.51167095 -0.43580794 0.73211378 -0.72252643 0.39404941 0.56804979 0.064544663
-0.030188018 -0.0022647756 1.0333785 -0.56952924 0.17545873 0.80302596 0.064544663
0.28690109 0.019836759 1.1958615 -0.33713502 0.15426525 0.9287315 0.064544663
0.2218802 0.27071607 1.131873 -0.4050408 0.1264157 0.90551698 0.064544663
0.19060364 0.22527663 1.1238834 -0.42698622 0.13006434 0.89485532 0.064544663
0.16479473 -0.03097238 1.1538345 -0.42338151 0.17097919 0.88967085 0.064544663
0.064628981 0.27241451 1.0473371 -0.52910852 0.12973791 0.83857751 0.064544663
0.29003149 -0.20084947 1.2394992 -0.3085874 0.20868149 0.92802256 0.064544663
0.1248952 -0.23647842 1.1814995 -0.42048967 0.23617314 0.87601978 0.064544663
-0.34527349 -0.21062979 0.81003779 -0.72008109 0.2662479 0.64077705 0.064544663
-0.34068146 -0.21114859 0.81539392 -0.7177434 0.26603544 0.64348239 0.064544663
-0.27436224 -0.14553142 0.86167794 -0.69790184 0.2355323 0.67635614 0.064544663
-0.40160155 -0.61973536 0.99274957 -0.59409875 0.51091284 0.62130088 0.064544663
-1.0443662 -1.1518365 1.4016448 -0.17125896 0.96351546 0.20568988 0.064544663
-0.28153744 -0.52168697 1.0311923 -0.58750904 0.42821681 0.68663198 0.064544663
1.0889816 -0.46040565 1.3355113 0.16308662 0.19879523 0.9663763 0.064544663
-0.53972405 -0.54257095 0.77831286 -0.68666309 0.46594262 0.55802441 0.064544663
-0.046134971 -0.13810679 1.055055 -0.55895066 0.2152454 0.80077684 0.064544663
-0.46497887 -0.63084012 0.93903667 -0.61316913 0.52513152 0.59013599 0.064544663
-0.37931174 -0.67062658 1.0564753 -0.55377042 0.54895455 0.6260888 0.064544663
0.2231843 0.26924345 1.132661 -0.40392235 0.12647788 0.90600777 0.064544663
0.43901041 -0.2415943 1.288534 -0.19960485 0.20744203 0.95766681 0.064544663
1.0907204 -2.5015244 4.5416169 0.56797749 0.81612277 0.10651387 0.064544663
0.3591114 -0.48401132 1.33697 -0.20417438 0.31241301 0.9277451 0.064544663
0.53011614 -0.54897165 1.384846 -0.085789025 0.31157863 0.94633979 0.064544663
-0.82449609 -0.9643265 1.0232942 -0.41129825 0.83223891 0.37176901 0.064544663
-0.5119524 -0.35431781 0.67826647 -0.7503522 0.34875888 0.56155038 0.064544663
-0.51760751 -0.41007951 0.70688087 -0.73386872 0.37963516 0.56330615 0.064544663
