# .PCD v0.7 - Point Cloud Data file format
VERSION 0.7
FIELDS x y z normal_x normal_y normal_z curvature
SIZE 4 4 4 4 4 4 4
TYPE F F F F F F F
COUNT 1 1 1 1 1 1 1
WIDTH 124
HEIGHT 1
VIEWPOINT 0 0 0 1 0 0 0
POINTS 124
DATA ascii
-0.29455605 -0.30030534 0.4510974 -0.58035433 -0.73656708 0.34735832 0.085492484
-0.33717012 -0.29990271 0.38743046 -0.49461776 -0.78823596 0.3661111 0.085492484
0.092676766 0.25198632 0.98405915 -0.16155359 0.30843505 0.93742639 0.085492484
0.075196207 0.011289365 1.0356382 -0.33114588 0.11120082 0.93700415 0.085492484
-0.0089796791 -0.070820674 0.99977124 -0.49077898 -0.0718337 0.86831784 0.085492484
0.024704069 -0.1346539 1.0127463 -0.51275331 -0.11025743 0.85142666 0.085492484
-0.0077022077 -0.14309104 0.99047279 -0.55945182 -0.16266578 0.81274444 0.085492484
-0.32236111 -0.30263564 0.40241107 -0.52561361 -0.77162522 0.35822451 0.085492484
-0.35467392 -0.30315176 0.35801485 -0.45569426 -0.80674279 0.37617654 0.085492484
-0.26133567 -0.26921502 0.57042378 -0.63304621 -0.6812411 0.36764535 0.085492484
0.14748326 0.18835704 1.0143626 -0.16708344 0.29751933 0.93998158 0.085492484
-0.31609699 -0.33054641 0.35150412 -0.53677076 -0.76528221 0.35527495 0.085492484
-0.27797881 0.10321716 0.89552897 -0.29822567 -0.26477867 0.91703528 0.085492484
-0.066724449 0.2567817 0.95247674 -0.18715502 0.19613869 0.96255004 0.085492484
0.10934364 -0.026443858 1.0517294 -0.31961688 0.098975398 0.9423635 0.085492484
0.23231778 -0.10342859 1.0927646 -0.19167706 0.081924774 0.97803283 0.085492484
-0.26591089 -0.071534835 0.81452143 -0.52633297 -0.51602823 0.67578733 0.085492484
0.12407255 -0.14869429 1.0620049 -0.38011596 -0.029468946 0.92446929 0.085492484
-0.045934953 0.24305172 0.9595421 -0.20010054 0.2050451 0.95807946 0.085492484
-0.25594041 -0.011512919 0.85971802 -0.46980965 -0.4104999 0.78151691 0.085492484
0.035539765 0.22577259 0.98104048 -0.19889744 0.2579551 0.94546229 0.085492484
-0.19656262 0.088967003 0.92216098 -0.36748406 -0.14987101 0.91787481 0.085492484
-0.29559389 -0.31324816 0.42169687 -0.57843226 -0.7396937 0.34390303 0.085492484
-0.40120891 -0.20978709 0.50360537 -0.36754835 -0.82809573 0.42327967 0.085492484
-0.26133567 -0.26921502 0.57042378 -0.63304621 -0.6812411 0.36764535 0.085492484
-0.23152564 -0.32087955 0.5275628 -0.68248516 -0.65296721 0.32840189 0.085492484
0.16976544 0.13865744 1.0334846 -0.17332102 0.27421951 0.94591939 0.085492484
0.08209753 0.23248884 0.98838246 -0.17732169 0.29145554 0.94000566 0.085492484
-0.15944865 -0.44065455 0.46288848 -0.78496897 -0.55345082 0.27841675 0.085492484
-0.29530871 -0.31025207 0.42861247 -0.57897913 -0.73899889 0.34447613 0.085492484
-0.31351024 -0.090105221 0.76050407 -0.48622981 -0.62203968 0.61371595 0.085492484
-0.24342321 -0.34184423 0.45945764 -0.66901177 -0.67187673 0.31781262 0.085492484
0.052346773 -0.15270023 1.026715 -0.4914127 -0.10138492 0.86500555 0.085492484
0.23928589 -0.16664189 1.0972387 -0.2014302 0.012345592 0.97942507 0.085492484
0.11600912 -0.16938533 1.057523 -0.40713182 -0.061575841 0.91129142 0.085492484
0.073134437 -0.15473199 1.0378577 -0.46293768 -0.082181364 0.88257289 0.085492484
0.13760132 -0.18352628 1.065851 -0.38078314 -0.062519737 0.92254835 0.085492484
-0.32913017 0.14625481 0.89463675 -0.18679357 -0.27397487 0.94342244 0.085492484
0.095478378 0.2546778 0.98364818 -0.15894173 0.3113904 0.93689567 0.085492484
0.11415812 0.19685522 1.0055137 -0.18248224 0.28706992 0.94036752 0.085492484
-0.39690545 -0.013892978 0.78401875 -0.29291627 -0.64150566 0.70899266 0.085492484
-0.2142214 0.13399252 0.9222393 -0.29811028 -0.11459965 0.94762713 0.085492484
-0.089054041 0.24397367 0.95041734 -0.19805653 0.16492347 0.96621627 0.085492484
0.0012823942 0.26579988 0.96331102 -0.17622745 0.25859308 0.94977552 0.085492484
-0.099497065 0.28862038 0.94037479 -0.15153652 0.18851762 0.97030807 0.085492484
-0.17540218 0.092422679 0.93111342 -0.36851281 -0.11037045 0.92304748 0.085492484
-0.088906653 -0.12040075 0.93546408 -0.60701132 -0.25647575 0.75216848 0.085492484
-0.094834752 -0.16792905 0.91085881 -0.6551376 -0.32627186 0.68142599 0.085492484
0.16383511 -0.037139278 1.0695904 -0.25854802 0.12214232 0.95824534 0.085492484
-0.24112462 0.048578735 0.8930639 -0.40209594 -0.28868747 0.86889493 0.085492484
-0.2540862 -0.012135047 0.86050951 -0.47198135 -0.40800318 0.78151584 0.085492484
0.14220129 0.14911221 1.0251828 -0.18920745 0.26945007 0.94424427 0.085492484
-0.26560974 -0.074170507 0.81273234 -0.52910197 -0.51900077 0.67133403 0.085492484
-0.0042752675 0.1627304 0.98605424 -0.26384249 0.1804968 0.94752735 0.085492484
0.083764195 0.16519159 1.0080792 -0.21847169 0.24885856 0.94357806 0.085492484
0.015922127 -0.14060107 1.0064918 -0.5291822 -0.12866724 0.838696 0.085492484
0.041122042 0.077467427 1.0148177 -0.31018421 0.14635077 0.93934405 0.085492484
-0.059017349 -0.047398414 0.9730745 -0.50970465 -0.11224824 0.85299557 0.085492484
-0.25466114 -0.34936002 0.42009205 -0.65251148 -0.68706095 0.31964985 0.085492484
0.32969368 0.14536242 1.0495775 -0.041131258 0.31343246 0.94871932 0.085492484
0.50091177 -0.18147036 1.099324 0.16689529 0.0049279481 0.98596233 0.085492484
0.22013468 -0.31002405 1.0803596 -0.29473042 -0.17506061 0.93940818 0.085492484
-0.37881124 0.043029793 0.83462995 -0.25980851 -0.52644807 0.80953813 0.085492484
-0.3973957 -0.26692811 0.38981372 -0.36650881 -0.84104621 0.39788514 0.085492484
-0.33728284 -0.30032519 0.38636863 -0.49432698 -0.78839922 0.36615232 0.085492484
-0.37177315 -0.03781265 0.77363193 -0.35575554 -0.64259511 0.67860854 0.085492484
-0.31518242 0.13582465 0.89460742 -0.21637656 -0.27047738 0.93809551 0.085492484
0.020942546 0.34702608 0.9415673 -0.11468007 0.31552541 0.94196188 0.085492484
0.25715372 0.071352147 1.0657411 -0.11663758 0.25140467 0.96082848 0.085492484
0.18333997 0.056507312 1.057429 -0.19477302 0.21737137 0.95645863 0.085492484
0.22318825 -0.021814724 1.0807241 -0.17816064 0.16228436 0.97052693 0.085492484
-0.14107162 0.22654203 0.9418608 -0.20727056 0.093404837 0.97381437 0.085492484
-0.15553007 0.13102755 0.94130242 -0.32112283 -0.029625403 0.94657409 0.085492484
0.19593121 0.12630905 1.0416377 -0.15706523 0.27530918 0.94843841 0.085492484
0.17701155 0.0061126999 1.0662745 -0.22260346 0.1705323 0.95987833 0.085492484
0.11120211 -0.02441776 1.0521396 -0.31608588 0.10242682 0.94318527 0.085492484
0.30773756 0.038564116 1.0789005 -0.069865979 0.2326666 0.97004384 0.085492484
0.08015877 0.16034985 1.0084966 -0.22370656 0.24315438 0.9438386 0.085492484
-0.033763129 0.14421789 0.98050892 -0.29192418 0.13617846 0.94669724 0.085492484
-0.14385559 -0.014975893 0.92744118 -0.50898582 -0.20779298 0.83531761 0.085492484
-0.17291537 -0.08464352 0.88146913 -0.58975297 -0.35900179 0.72340113 0.085492484
0.122942 0.13197136 1.0257893 -0.21204582 0.24765167 0.94535983 0.085492484
0.23862776 0.13643143 1.044794 -0.11859701 0.29449746 0.94826472 0.085492484
0.09960717 0.090631016 1.0298923 -0.25440469 0.20180166 0.94580883 0.085492484
-0.30004171 -0.31699505 0.40620935 -0.56983632 -0.74567211 0.34534004 0.085492484
0.054293029 -0.0041818852 1.0294064 -0.36464709 0.076828539 0.92797083 0.085492484
0.0083583929 -0.042633276 1.0103649 -0.44584137 -0.01545461 0.89497858 0.085492484
-0.14460483 -0.0046522468 0.92946339 -0.49633667 -0.19450478 0.84606016 0.085492484
-0.062978297 0.011776761 0.97614473 -0.44656438 -0.042558376 0.89373881 0.085492484
-0.17348713 0.085737094 0.93106604 -0.37786263 -0.11646826 0.91850692 0.085492484
-0.046610121 0.067652933 0.98342866 -0.37608576 0.044669617 0.92550749 0.085492484
0.033255238 0.045581859 1.0164235 -0.34285796 0.10854741 0.9330948 0.085492484
-0.079476573 0.14029761 0.96645242 -0.30828586 0.081662193 0.94778222 0.085492484
-0.021966606 0.16386767 0.98087281 -0.26915282 0.16509463 0.94884169 0.085492484
0.092502065 0.24918081 0.98494941 -0.16324633 0.30677983 0.93767625 0.085492484
0.42143592 -0.449635 1.0708432 0.063891262 -0.28937358 0.95508158 0.085492484
0.22023097 -0.10812144 1.090644 -0.21098858 0.072470948 0.97479832 0.085492484
0.11600912 -0.16938533 1.057523 -0.40713182 -0.061575841 0.91129142 0.085492484
0.17174619 -0.27485177 1.0691142 -0.37411842 -0.15595208 0.91417414 0.085492484
-0.26078096 -0.19509159 0.69077295 -0.61397302 -0.63773811 0.46510997 0.085492484
-0.39442232 -0.011324568 0.78734607 -0.29456189 -0.63459545 0.71450812 0.085492484
-0.39890346 -0.033019081 0.76500255 -0.30665311 -0.67107099 0.67500192 0.085492484
-0.41441613 -0.14039628 0.61759537 -0.33580452 -0.80024463 0.4968338 0.085492484
-0.13888583 -0.43599972 0.5300107 -0.7954976 -0.53566557 0.28327718 0.085492484
-0.3113015 -0.33274418 0.35411072 -0.54667872 -0.75959593 0.35235831 0.085492484
0.092502065 0.24918081 0.98494941 -0.16324633 0.30677983 0.93767625 0.085492484
0.14288785 0.2303908 0.99972522 -0.1502182 0.32036218 0.93530881 0.085492484
0.11415812 0.19685522 1.0055137 -0.18248224 0.28706992 0.94036752 0.085492484
-0.31859601 0.12873605 0.89169025 -0.22263581 -0.28754029 0.9315331 0.085492484
-0.14772332 -0.013033801 0.92557693 -0.50705665 -0.21188681 0.83546245 0.085492484
0.17701155 0.0061126999 1.0662745 -0.22260346 0.1705323 0.95987833 0.085492484
-0.35230356 -0.061391331 0.76188791 -0.40654895 -0.64637935 0.64568698 0.085492484
0.11511149 0.15392569 1.0181665 -0.20549776 0.25913632 0.94372612 0.085492484
0.14877135 0.063373484 1.048275 -0.22569917 0.20737027 0.9518705 0.085492484
0.013424275 -0.13981837 1.0050317 -0.53154808 -0.13080406 0.83686733 0.085492484
-0.081697665 0.12620878 0.96679813 -0.32445857 0.064414375 0.94370407 0.085492484
0.28698927 0.094549246 1.0624943 -0.083931819 0.27397814 0.95806652 0.085492484
0.1865287 0.063158713 1.0565333 -0.188969 0.22409977 0.95607007 0.085492484
0.24162155 -0.04821001 1.0880874 -0.1626157 0.14223723 0.97638351 0.085492484
0.041122042 0.077467427 1.0148177 -0.31018421 0.14635077 0.93934405 0.085492484
0.29753289 -0.27669218 1.1020904 -0.13088813 -0.10591964 0.98572272 0.085492484
-0.31065091 -0.084631398 0.76819551 -0.48595107 -0.61076123 0.62515777 0.085492484
-0.37881124 0.043029793 0.83462995 -0.25980851 -0.52644807 0.80953813 0.085492484
-0.33183494 -0.33668634 0.31574613 -0.50226033 -0.78224665 0.3685441 0.085492484
