# .PCD v0.7 - Point Cloud Data file format
VERSION 0.7
FIELDS x y z normal_x normal_y normal_z curvature
SIZE 4 4 4 4 4 4 4
TYPE F F F F F F F
COUNT 1 1 1 1 1 1 1
WIDTH 88
HEIGHT 1
VIEWPOINT 0 0 0 1 0 0 0
POINTS 88
DATA ascii
-0.69892758 -0.76491547 0.14068216 0.67566419 -0.23749688 -0.69790626 0.087205797
-0.43347675 -0.43803138 0.32975101 0.73705 -0.029236462 -0.67520553 0.087205797
-0.77334791 -0.26865724 0.031654887 0.56001455 -0.016654987 -0.82831538 0.087205797
-0.55797851 -0.22991498 0.20564157 0.69852573 0.032679059 -0.71483839 0.087205797
-0.35160682 -0.058268156 0.65736526 0.87732559 0.46305171 -0.12602746 0.087205797
-0.41134852 -0.42118999 0.35396117 0.75192797 -0.0077542667 -0.65919971 0.087205797
-0.29269463 -0.366732 0.51585931 0.83577132 0.13559915 -0.53207064 0.087205797
-0.47645983 -0.39543027 0.28290778 0.71872604 -0.0095204683 -0.69522816 0.087205797
-0.42924845 -0.43001017 0.3340874 0.7404871 -0.021409946 -0.67172945 0.087205797
-0.49030831 -0.36375809 0.26859945 0.71516109 0.0060740202 -0.6989333 0.087205797
-0.49545985 -0.36842158 0.26333034 0.71142107 0.0018268173 -0.70276368 0.087205797
-0.49094325 -0.73287302 0.3405804 0.70198208 -0.30315262 -0.64445299 0.087205797
-0.28918192 -0.23745526 0.58761072 0.87113637 0.32159027 -0.37108105 0.087205797
-0.5437305 -0.35004032 0.21621013 0.68545491 -0.0011919426 -0.72811413 0.087205797
-0.54409474 -0.30095458 0.21646068 0.69246453 0.018132314 -0.72122407 0.087205797
-0.66743481 -0.98951435 0.31059045 0.68544006 -0.49420446 -0.53472781 0.087205797
-0.63720399 -0.33637267 0.13406715 0.63309324 -0.010863549 -0.77399933 0.087205797
-0.98306161 -0.57091689 -0.10150314 0.51978958 0.04662127 -0.85302126 0.087205797
-0.43577623 -0.74169719 0.40648296 0.71089768 -0.32624486 -0.62304795 0.087205797
-0.4391425 -0.40274569 0.32271773 0.7390551 -0.0031047272 -0.67363787 0.087205797
-0.57666022 -0.20519333 0.18860948 0.69171745 0.02786172 -0.72163063 0.087205797
-0.61814147 -0.60613614 0.17334801 0.66136163 -0.14424722 -0.73606622 0.087205797
-0.45458227 -0.32917234 0.30788627 0.74388999 0.041595522 -0.66700637 0.087205797
-0.29064885 -0.23718284 0.58441627 0.8708064 0.31880838 -0.37424245 0.087205797
-0.62707567 -0.33226722 0.1423637 0.63902676 -0.0089083966 -0.76913291 0.087205797
-0.11306439 -0.70145887 0.80979705 0.82254964 -0.21339265 -0.52713913 0.087205797
-0.54240668 -0.8596704 0.35691196 0.68879706 -0.41848573 -0.59196985 0.087205797
-0.76126909 -0.26390383 0.039798208 0.56684619 -0.016563581 -0.8236571 0.087205797
-0.37688738 -0.099780679 0.49765843 0.88191855 0.30731317 -0.35746092 0.087205797
-0.49926701 -0.44204754 0.26170993 0.70184618 -0.044915128 -0.71091104 0.087205797
-0.47200024 -0.40072823 0.28761196 0.72056496 -0.011855209 -0.69328612 0.087205797
-0.42128798 -0.80738622 0.46281365 0.70238322 -0.40026397 -0.58859712 0.087205797
-0.45583713 -0.42956892 0.30537972 0.7259568 -0.028385213 -0.68715429 0.087205797
-0.61520761 0.072451502 1.2580525 0.63141412 0.67087144 0.38890579 0.087205797
-0.48060882 -0.4450416 0.28056723 0.71127182 -0.044566281 -0.70150286 0.087205797
-0.56742519 -0.22679858 0.19661964 0.6927169 0.028911294 -0.72062987 0.087205797
-0.49482185 -0.46018457 0.26740924 0.70305502 -0.057049457 -0.70884347 0.087205797
-0.44318363 -0.39753488 0.31827977 0.73755819 -0.0006066052 -0.67528331 0.087205797
-0.61030203 -0.50227386 0.16497339 0.65080625 -0.077750497 -0.7552523 0.087205797
-0.56920147 -0.39535764 0.19365074 0.66756618 -0.025176102 -0.74412471 0.087205797
-0.74719429 -0.62400478 0.066492192 0.62454623 -0.10016992 -0.77453727 0.087205797
-0.50037783 -0.67946517 0.30820519 0.70092863 -0.24583618 -0.66952497 0.087205797
-0.4752048 -0.30640295 0.28662381 0.73581612 0.044456512 -0.67572051 0.087205797
-0.72540289 -0.31503865 0.065946497 0.58529359 -0.012779933 -0.81072074 0.087205797
-0.6187731 -0.60022014 0.17164247 0.66022485 -0.13962947 -0.73797476 0.087205797
-0.75461584 -0.13405305 0.039916728 0.58347088 -0.045402296 -0.81086397 0.087205797
-0.66302079 -0.29410908 0.1128298 0.62110442 -0.0068802764 -0.78369761 0.087205797
-0.14772396 -0.46264991 0.74507314 0.88425356 0.19295114 -0.42528287 0.087205797
-0.36091307 -0.17764112 0.47735256 0.85926729 0.25653872 -0.4425467 0.087205797
-0.79273528 -0.23798653 0.017989248 0.55031753 -0.02301107 -0.8346383 0.087205797
-0.93061841 -0.52151346 -0.067478336 0.52326798 0.022650406 -0.85186714 0.087205797
-0.67553908 -1.0096307 0.31922993 0.68349218 -0.51081663 -0.52144486 0.087205797
-0.82072186 -0.26689479 0.00063572818 0.53450507 -0.018245665 -0.84496832 0.087205797
-1.1640029 -0.31889948 -0.17497058 0.38021088 0.036592286 -0.92417568 0.087205797
-0.64148253 -0.36162519 0.13103826 0.62986362 -0.017225513 -0.77651471 0.087205797
-0.44292149 -0.38640398 0.3186259 0.73958409 0.0077237156 -0.67301989 0.087205797
-0.59094268 -0.33945119 0.17326972 0.65911376 -0.0060830726 -0.75201863 0.087205797
-0.15025377 -0.65733993 0.73649335 0.82461935 -0.16960345 -0.53966433 0.087205797
-0.72417712 -0.33790842 0.067207158 0.58600485 -0.013969509 -0.8101871 0.087205797
-1.0144919 -0.61893147 -0.12397213 0.52816987 0.063919991 -0.84672946 0.087205797
-0.79696077 -0.22766303 0.014909632 0.54841149 -0.025642533 -0.83581537 0.087205797
-0.69362348 -0.66367799 0.11819771 0.6512416 -0.1547111 -0.74293262 0.087205797
-0.48532268 -0.34019148 0.27421662 0.72218794 0.021268744 -0.69136983 0.087205797
-0.21085706 -0.83129877 0.74957329 0.7270062 -0.43216869 -0.53356558 0.087205797
-1.027851 -0.55921119 -0.12721559 0.49712336 0.07087025 -0.86478078 0.087205797
-0.14077355 -1.0934954 1.1447819 0.60009271 -0.65872818 -0.45383471 0.087205797
-0.7523908 0.08726126 1.4319079 0.58098519 0.68042445 0.44663045 0.087205797
-0.69279003 -0.78331429 0.15330188 0.68040711 -0.25906739 -0.68551463 0.087205797
-0.62001395 -0.35046721 0.14850993 0.64195061 -0.012888129 -0.76663768 0.087205797
-0.82347047 0.34562236 1.2039902 0.69199312 0.50115782 0.51960212 0.087205797
-0.093893602 -0.75877219 0.86707669 0.80161285 -0.29146141 -0.5219838 0.087205797
-0.49575341 -0.14313665 0.28173196 0.77569503 0.096582793 -0.6236738 0.087205797
-0.66871548 -0.74743646 0.16396931 0.6759423 -0.23966549 -0.69689488 0.087205797
-0.66901046 -0.33220437 0.10857721 0.615646 -0.012341197 -0.7879262 0.087205797
-0.8303389 -0.23060255 -0.0063725016 0.52981776 -0.027167087 -0.84767628 0.087205797
-0.81896085 -0.31635669 0.0025742375 0.53655326 -0.010573334 -0.84380019 0.087205797
-0.7274636 -0.66347849 0.088925079 0.64217073 -0.13632832 -0.75434166 0.087205797
-0.71382171 -0.32580018 0.074546471 0.59144157 -0.013119381 -0.8062411 0.087205797
-0.59911263 -0.1996197 0.16769399 0.67717969 0.018035606 -0.7355966 0.087205797
0.016023619 -0.65276158 1.034448 0.9066543 0.074364983 -0.41526839 0.087205797
0.70347077 -1.2251961 2.2492137 0.61943835 -0.34989601 -0.70275807 0.087205797
-0.069432408 -1.1375402 1.3026361 0.58045518 -0.67628169 -0.45355803 0.087205797
-0.83141559 -0.2661863 -0.0060944213 0.52886575 -0.018459577 -0.84850472 0.087205797
-0.7450549 -0.25705418 0.050957829 0.57630312 -0.016050158 -0.81707841 0.087205797
-0.78143537 -0.59960973 0.036973312 0.60566336 -0.069639623 -0.79266781 0.087205797
-0.16222143 -1.1031436 1.1306081 0.59368712 -0.66727245 -0.44975886 0.087205797
-0.36865118 -0.12298182 0.49817261 0.8765645 0.30038416 -0.37603733 0.087205797
-0.82702971 -0.55999869 0.0010049175 0.57656586 -0.031758238 -0.81643325 0.087205797
