# .PCD v0.7 - Point Cloud Data file format
VERSION 0.7
FIELDS x y z normal_x normal_y normal_z curvature
SIZE 4 4 4 4 4 4 4
TYPE F F F F F F F
COUNT 1 1 1 1 1 1 1
WIDTH 132
HEIGHT 1
VIEWPOINT 0 0 0 1 0 0 0
POINTS 132
DATA ascii
-0.53959 -0.94232905 0.44676718 0.71736449 -0.64960337 -0.25180086 0.13425699
-0.5127874 -0.90487134 0.42327785 0.61880434 -0.69331771 -0.36931252 0.13425699
-0.44544685 -0.69902742 0.26479065 0.31101805 -0.51883382 -0.79629093 0.13425699
-0.61186767 -0.59100932 0.11788611 0.5371446 -0.40302038 -0.74097925 0.13425699
-1.0410078 -0.91296226 -0.10786854 0.49236757 -0.0036391942 -0.87037975 0.13425699
-0.59281003 -0.87976468 0.2895349 0.69299376 -0.38686472 -0.60835457 0.13425699
-0.52333206 -0.64583033 0.19952862 0.40731561 -0.42430177 -0.80874103 0.13425699
-0.80902195 -0.66293693 -0.019229094 0.65025157 -0.49588662 -0.57556003 0.13425699
-0.52654243 -0.6626125 0.2068278 0.41245994 -0.432769 -0.80161572 0.13425699
-0.56878048 -0.58334059 0.14281575 0.48454612 -0.39077121 -0.78263205 0.13425699
-0.7567389 -1.1125206 0.058787741 0.72548956 0.36105984 -0.58591866 0.13425699
-0.62142545 -1.1350634 0.38643566 0.99881166 -0.038608696 -0.029742926 0.13425699
-1.0757977 -1.1199716 -0.18073972 0.34658277 0.40978748 -0.84377402 0.13425699
-1.0800517 -1.0981119 -0.17231613 0.35445759 0.38037056 -0.85421193 0.13425699
-0.81591624 -0.66850585 -0.022215923 0.64922827 -0.49397817 -0.57834959 0.13425699
-0.7186718 -1.1378852 0.093870461 0.77580982 0.36213568 -0.51669806 0.13425699
-0.50429833 -0.64874983 0.2103184 0.38201174 -0.43415958 -0.8158263 0.13425699
-0.52091438 -0.6091345 0.18210495 0.4089095 -0.40230209 -0.81911296 0.13425699
-0.58200949 -0.63772845 0.16239335 0.48275733 -0.40326306 -0.77738297 0.13425699
-0.83280367 -0.64844102 -0.062649079 0.65178466 -0.57638431 -0.49290758 0.13425699
-0.82387048 -1.0878515 9.3687333e-05 0.64545786 0.36348557 -0.67176068 0.13425699
-0.77308035 -0.66756207 0.022808133 0.64031774 -0.43908569 -0.63023561 0.13425699
-0.54931617 -0.83067483 0.29853037 0.57113284 -0.49545032 -0.65447402 0.13425699
-0.6459623 -0.68470818 0.14315608 0.55179912 -0.38044581 -0.7421447 0.13425699
-0.60557616 -0.31965804 -0.087291256 0.9265272 -0.35415706 -0.12696522 0.13425699
-0.66902429 -0.59134191 0.071712807 0.60457158 -0.4344967 -0.66761202 0.13425699
-0.46932551 -0.63938838 0.22055179 0.33453789 -0.44018349 -0.83326042 0.13425699
-0.68242997 -0.66681379 0.10532685 0.58405823 -0.38843381 -0.7127378 0.13425699
-0.76469487 -0.69806707 0.050037023 0.63152438 -0.38034359 -0.67565948 0.13425699
-0.77211767 -0.70920604 0.049245659 0.63361269 -0.36606112 -0.68156743 0.13425699
-0.8069061 -1.2935047 0.82626349 0.82901043 -0.051384807 0.55686736 0.13425699
-0.61953628 -0.81212908 0.22623505 0.61374491 -0.34919685 -0.70808101 0.13425699
-0.83398908 -0.72416723 -0.0013779089 0.6420247 -0.38616472 -0.66233003 0.13425699
-0.95082134 -1.2330439 -0.18967614 0.40582022 0.53671074 -0.73976451 0.13425699
-1.1101724 -1.0735044 -0.17410442 0.33644241 0.33860597 -0.87872207 0.13425699
-1.1149739 -1.1616917 -0.21663715 0.28525099 0.45054051 -0.84595811 0.13425699
-0.61901528 -1.2024021 0.35082999 0.99301487 0.11797858 -0.0015741731 0.13425699
-0.73283613 -0.66598529 0.060868397 0.62081063 -0.40786529 -0.66950738 0.13425699
-0.65301806 -1.0971938 0.24314512 0.92274547 0.13202159 -0.36209273 0.13425699
-0.58529782 -1.3502353 0.16991308 0.89200652 0.43502036 -0.12280753 0.13425699
-0.70086962 -1.1631538 0.10315824 0.79456437 0.37947485 -0.47398978 0.13425699
-0.81246334 -0.66562623 -0.020798709 0.64977956 -0.49518746 -0.57669395 0.13425699
-0.83795232 -0.65764797 -0.058886506 0.64911592 -0.56189048 -0.51276463 0.13425699
-0.97381538 -1.1869879 -0.17052834 0.41183054 0.49541819 -0.76482445 0.13425699
-0.77400124 -0.64278007 0.0030111985 0.64980203 -0.48504463 -0.58522564 0.13425699
-0.86284536 -0.67667907 -0.069216527 0.63936394 -0.55828267 -0.52871001 0.13425699
-0.51179504 -0.57300293 0.16951412 0.409522 -0.37785906 -0.83036995 0.13425699
-0.84048074 -0.82218587 0.030745486 0.65005094 -0.16070667 -0.7427026 0.13425699
-0.96312958 -1.1681132 -0.15257235 0.43543303 0.47798067 -0.76284504 0.13425699
-1.0159746 -1.096638 -0.14186727 0.42308137 0.38823542 -0.81870353 0.13425699
-0.33112291 -0.71407962 0.30942795 0.15605703 -0.61342371 -0.77418184 0.13425699
-0.44777572 -0.7078349 0.26968786 0.3174578 -0.52803946 -0.78765148 0.13425699
-0.60046268 -0.68704861 0.1763373 0.50617373 -0.39912632 -0.76451707 0.13425699
-0.66173792 -0.69782776 0.13785782 0.56778485 -0.36867878 -0.73600024 0.13425699
-0.62791044 -1.080566 0.32389772 0.96898866 -0.037321687 -0.24427047 0.13425699
-0.52508664 -0.66052383 0.20644826 0.41033238 -0.43228912 -0.8029654 0.13425699
-0.69303858 -0.70581144 0.11688131 0.59311533 -0.35529032 -0.72248387 0.13425699
-0.75615394 -0.66298151 0.036641378 0.63443041 -0.43000382 -0.64233541 0.13425699
-0.64765775 -1.1195129 0.2483037 0.9348852 0.15657619 -0.3185491 0.13425699
-0.62896562 -0.77723074 0.20146671 0.58461094 -0.35127559 -0.73132449 0.13425699
-0.77485561 -0.65363359 0.010756027 0.64563155 -0.46621004 -0.60482073 0.13425699
-0.87713522 -0.64925057 -0.12601605 0.62285483 -0.68123627 -0.38466743 0.13425699
-0.44645116 -0.69581974 0.26232216 0.31140029 -0.51413763 -0.7991823 0.13425699
-0.57955378 -0.95476943 0.37078196 0.81512356 -0.43789926 -0.37923312 0.13425699
-0.61743706 -0.79403931 0.21902251 0.59198058 -0.36030295 -0.72093052 0.13425699
-0.72827446 -0.49500433 -0.17053618 0.72781122 -0.68311 -0.060427688 0.13425699
-0.55903184 -0.97657758 0.48914695 0.77457553 -0.62512439 -0.096188672 0.13425699
-0.56587708 -0.92832971 0.36685792 0.75457227 -0.49358633 -0.43242711 0.13425699
-0.64812338 -0.62889218 0.11166507 0.56082118 -0.40463027 -0.72232538 0.13425699
-1.0593525 -1.0671977 -0.15024023 0.39381608 0.3382256 -0.85470015 0.13425699
-1.2438924 -0.93551415 -0.18955021 0.24767561 -0.022328777 -0.96858567 0.13425699
-1.0023501 -1.1984248 -0.19246009 0.37496439 0.50256944 -0.77899015 0.13425699
-1.0773828 -1.1240621 -0.18338649 0.34266171 0.41457647 -0.84303576 0.13425699
-0.62738788 -1.20907 0.44798508 0.98431802 0.0088792406 0.1761795 0.13425699
-0.77190703 -0.63420385 -0.0019218621 0.65309858 -0.49789664 -0.57057965 0.13425699
-0.64139986 -1.0903414 0.2772156 0.94697881 0.064597614 -0.31473526 0.13425699
-0.45091817 -0.64627218 0.23134279 0.30938303 -0.45444006 -0.83532411 0.13425699
-0.3569358 -0.7266537 0.3136909 0.19458345 -0.62388581 -0.75690407 0.13425699
-0.61608762 -1.0875555 0.3992188 0.98407429 -0.15880142 -0.07987424 0.13425699
-0.85478014 -0.67632776 -0.059910923 0.64244503 -0.5430311 -0.54072326 0.13425699
-1.1099793 -1.0765463 -0.17521188 0.33502701 0.34337741 -0.87741029 0.13425699
-0.70733708 -0.62033594 0.055307146 0.62141466 -0.44222474 -0.64674652 0.13425699
-0.86437345 -0.65929216 -0.091732346 0.63724756 -0.61550516 -0.46375525 0.13425699
-0.86045539 -0.66644514 -0.077620618 0.64016879 -0.58426541 -0.49881649 0.13425699
-0.85717547 -0.66991508 -0.069548234 0.64172608 -0.56674147 -0.51671243 0.13425699
-0.53043157 -0.93683082 0.457966 0.68601155 -0.68698877 -0.23965514 0.13425699
-0.60937631 -1.064062 0.49381205 0.92899305 -0.3631725 0.071257308 0.13425699
-0.83795232 -0.65764797 -0.058886506 0.64911592 -0.56189048 -0.51276463 0.13425699
-0.83379489 -0.64424932 -0.069029123 0.65203351 -0.59014249 -0.47600856 0.13425699
-0.5712387 -0.67046762 0.18608038 0.46961471 -0.41295195 -0.78034139 0.13425699
-0.82316059 -1.1439949 -0.033454798 0.61494911 0.44112012 -0.65364414 0.13425699
-0.60861617 -0.69246447 0.17368811 0.51622951 -0.39417201 -0.76035219 0.13425699
-0.60184669 -0.67680752 0.17007813 0.50578654 -0.39895555 -0.76486236 0.13425699
-0.73851347 -1.1020133 0.088580549 0.75840276 0.3261098 -0.56433827 0.13425699
-0.58549219 -0.69078922 0.18802655 0.4905012 -0.40797123 -0.77004421 0.13425699
-0.6848464 -0.67692435 0.10879254 0.58519119 -0.38065994 -0.71599531 0.13425699
-0.38671887 -0.85032868 0.45800674 0.29548657 -0.86813313 -0.39878884 0.13425699
-0.89383006 -1.1208085 -0.078193903 0.54331666 0.42463794 -0.72421658 0.13425699
-0.82007712 -1.1632606 -0.043976799 0.60641217 0.46376586 -0.645899 0.13425699
-0.78384084 -0.64913923 -0.0026482842 0.65027595 -0.48693371 -0.58312666 0.13425699
-0.61837792 -0.66229522 0.15133543 0.52282071 -0.39493757 -0.75543553 0.13425699
-0.66465074 -1.0807226 0.22186911 0.89632177 0.14037645 -0.4205969 0.13425699
-0.53959 -0.94232905 0.44676718 0.71736449 -0.64960337 -0.25180086 0.13425699
-0.62171376 -1.1258471 0.4437142 0.98781949 -0.1400184 0.067878269 0.13425699
-0.82831264 -1.0536314 0.012836473 0.65468931 0.31092435 -0.68899053 0.13425699
-1.1718918 -1.8108559 1.3676192 0.7392863 0.18694951 0.64692014 0.13425699
-0.67647803 -0.64615947 0.098701254 0.58309442 -0.40243131 -0.7057265 0.13425699
-0.71528828 -0.65069163 0.067628995 0.61356318 -0.41551745 -0.67148006 0.13425699
-0.70315391 -0.6715073 0.090530284 0.59973502 -0.38850644 -0.69955748 0.13425699
-0.73985618 -0.68017888 0.062834412 0.62203097 -0.39300624 -0.67721748 0.13425699
-0.68477577 -0.61702031 0.07406795 0.60329592 -0.42799717 -0.67294312 0.13425699
-0.52804244 -0.61257815 0.18019596 0.41773653 -0.40338716 -0.81410992 0.13425699
-0.83368361 -0.71718794 -0.0052671307 0.64234251 -0.40258947 -0.65216398 0.13425699
-0.2840685 -0.68383092 0.29421887 0.093014605 -0.56929004 -0.81685811 0.13425699
-0.76294225 -1.1352962 0.036408316 0.7041837 0.40042093 -0.58633471 0.13425699
-0.58939523 -0.58998275 0.13295703 0.50863975 -0.39656371 -0.76421386 0.13425699
-0.34576473 -0.69698018 0.29347223 0.17242514 -0.57502359 -0.79976088 0.13425699
-1.3918694 -0.90075868 -0.21817252 0.084110342 -0.1778937 -0.98044848 0.13425699
-1.0777489 -0.88498038 -0.12983014 0.46262053 -0.11991633 -0.87840897 0.13425699
-0.63346237 -1.1188439 0.53268319 0.94256634 -0.25662184 0.21380816 0.13425699
-1.0447879 -1.2482698 -0.24387203 0.30385828 0.53550208 -0.78797698 0.13425699
-0.74324077 -0.6415956 0.034725465 0.63568467 -0.44971699 -0.62742299 0.13425699
-0.69952792 -0.60734266 0.053866059 0.62300682 -0.44817168 -0.64109647 0.13425699
-0.7061578 -1.0821623 0.14605899 0.81795925 0.24444446 -0.52075869 0.13425699
-0.62231076 -0.59206456 0.11074997 0.54958844 -0.40681699 -0.72969341 0.13425699
-0.52135968 -0.71895891 0.24181806 0.42411301 -0.47154465 -0.77315831 0.13425699
-0.86765069 -0.67625177 -0.075530067 0.63713157 -0.56965852 -0.51918447 0.13425699
-0.87788773 -0.68375933 -0.079790503 0.63239598 -0.56777751 -0.52697635 0.13425699
-0.89402521 -0.70268708 -0.079170905 0.62552851 -0.53948903 -0.56361836 0.13425699
-0.57370681 -0.61629426 0.15645376 0.47710904 -0.40012091 -0.78247696 0.13425699
-0.57216704 -0.66123462 0.18065427 0.46982554 -0.41053715 -0.78148782 0.13425699
-0.70669931 -0.71416587 0.10959888 0.60344708 -0.3451843 -0.71881807 0.13425699
