# .PCD v0.7 - Point Cloud Data file format
VERSION 0.7
FIELDS x y z normal_x normal_y normal_z curvature
SIZE 4 4 4 4 4 4 4
TYPE F F F F F F F
COUNT 1 1 1 1 1 1 1
WIDTH 159
HEIGHT 1
VIEWPOINT 0 0 0 1 0 0 0
POINTS 159
DATA ascii
-1.5759356 -1.7374661 0.039177354 -0.25836661 0.088612512 0.96197426 0.052707415
-1.1176101 -1.5692391 0.32157993 -0.67706054 -0.047160566 0.7344147 0.052707415
-1.0262092 -1.8402114 0.39107823 -0.70698017 -0.039260082 0.70614284 0.052707415
-1.2600952 -1.127781 0.19680598 -0.62310106 0.08650139 0.77734327 0.052707415
-1.3458906 -1.1551952 0.13361949 -0.5885967 0.074902259 0.8049494 0.052707415
-0.66803014 -2.1723843 0.81240702 -0.77486897 0.11118418 0.62226695 0.052707415
-1.8782758 -1.6244227 -0.0091709793 0.037626982 0.18069826 0.9828186 0.052707415
-1.265563 -1.7611551 0.18927725 -0.57481301 -0.01959691 0.81805009 0.052707415
-1.1592603 -1.7062756 0.27522454 -0.65265465 -0.046477992 0.75622863 0.052707415
-1.5345799 -1.8439932 0.0610658 -0.26784137 0.10324834 0.95791483 0.052707415
-1.7620733 -1.8909096 0.039701216 0.01362615 0.21007673 0.97758996 0.052707415
-0.87384284 -2.2412758 0.56650603 -0.76039958 0.097057134 0.64216226 0.052707415
-0.68882823 -1.5410352 0.73197365 -0.63829607 0.08755514 0.76479554 0.052707415
-1.0272902 -1.0060132 0.36640057 -0.60882688 0.21206844 0.76443237 0.052707415
-1.1880252 -1.0280846 0.24018221 -0.62627482 0.15373681 0.76429367 0.052707415
-1.025651 -1.6841823 0.40197489 -0.70579571 -0.049899288 0.70665586 0.052707415
-1.3234538 -1.0787193 0.1413448 -0.59721434 0.11323246 0.79404873 0.052707415
-1.3579304 -1.0513304 0.11174724 -0.5807851 0.13020828 0.80357605 0.052707415
-0.80025214 -1.7892199 0.63485485 -0.73374075 -0.0052824221 0.67940897 0.052707415
-0.9889918 -1.7796739 0.43268242 -0.71788293 -0.044642277 0.694731 0.052707415
-0.7062639 -1.1601828 0.64096427 -0.49346948 0.26711807 0.82772928 0.052707415
-0.94154316 -1.133496 0.46583274 -0.62210906 0.15683533 0.76706123 0.052707415
-1.3270113 -1.0769858 0.13842608 -0.59565163 0.11429898 0.7950691 0.052707415
-1.3215156 -1.1463332 0.15088192 -0.60024458 0.077595867 0.79604357 0.052707415
-1.0813143 -1.7760655 0.34130406 -0.68633646 -0.046246801 0.72581232 0.052707415
-0.88643283 -2.0093102 0.53560543 -0.75132757 0.0037131584 0.65991902 0.052707415
-1.4260834 -0.79705685 -0.0039251023 -0.51880878 0.31277445 0.79561901 0.052707415
-0.56342828 -1.5512273 0.82886958 -0.55456257 0.16521965 0.81557512 0.052707415
-1.1854932 -0.67280388 0.10360059 -0.51819324 0.44605044 0.72973609 0.052707415
-0.87099093 -1.9941729 0.55318415 -0.75341713 0.001815928 0.65754038 0.052707415
-0.95496798 -1.1538153 0.45873642 -0.63230473 0.13812028 0.76230806 0.052707415
-0.79502082 -1.1936752 0.59191114 -0.57305169 0.19206958 0.7966938 0.052707415
-0.69153923 -0.9156943 0.54348892 -0.35620406 0.4474259 0.82032233 0.052707415
-1.6203494 -2.1509366 0.10640579 -0.048143104 0.27820382 0.95931476 0.052707415
-1.4055529 -1.0535337 0.078715526 -0.55652541 0.13242429 0.82020926 0.052707415
-1.5719265 -1.6951463 0.036654569 -0.27869552 0.076990075 0.9572885 0.052707415
-1.6486789 -3.2690516 1.0847834 0.017227193 0.88617182 0.46303639 0.052707415
-1.3267373 -1.0889273 0.14029729 -0.59633338 0.10761233 0.7954911 0.052707415
-1.1807157 -1.0904666 0.25717244 -0.63700062 0.11472379 0.76227862 0.052707415
-2.1311944 -1.5137422 0.0018163976 0.21931322 0.23696674 0.94643992 0.052707415
-1.137265 -0.79120719 0.2024906 -0.55918211 0.35262007 0.75031626 0.052707415
-1.2367709 -0.84802216 0.15084533 -0.58162582 0.28235182 0.76288193 0.052707415
-1.3216063 -1.0963734 0.14514317 -0.59881812 0.10337716 0.7941851 0.052707415
-1.0482234 -0.72444779 0.23094109 -0.50667483 0.43963319 0.74162209 0.052707415
-1.1505218 -1.0855407 0.28174165 -0.63919508 0.12273464 0.75918764 0.052707415
-0.98916632 -1.0901728 0.41792089 -0.62386584 0.16619135 0.76365691 0.052707415
-0.92718887 -1.0851797 0.46618164 -0.60107481 0.19611382 0.77475703 0.052707415
-1.1596 -1.0895818 0.27474347 -0.6391592 0.11859838 0.759875 0.052707415
-0.97145069 -1.0563151 0.4241474 -0.6081059 0.1971091 0.76899624 0.052707415
-1.0408534 -0.7657882 0.25946209 -0.52246064 0.40597898 0.74981064 0.052707415
-0.83391708 -1.7702013 0.59880197 -0.73335046 -0.01589804 0.67966491 0.052707415
-1.4170111 -1.1093882 0.079020195 -0.54947728 0.10424102 0.82898039 0.052707415
-1.389261 -0.70457727 -0.021285541 -0.50892603 0.39148903 0.76663589 0.052707415
-1.2792194 -1.7628275 0.17978615 -0.56339568 -0.015653778 0.8260389 0.052707415
-0.83766121 -1.7999314 0.59401405 -0.73745883 -0.016865164 0.67518151 0.052707415
-1.2347208 -0.8053053 0.13551918 -0.56926638 0.31875241 0.75784737 0.052707415
-1.057593 -0.89788812 0.3075867 -0.58089536 0.28660756 0.76185083 0.052707415
-0.89434034 -1.1023257 0.49576691 -0.59256274 0.1998245 0.7803458 0.052707415
-0.95686769 -0.98291844 0.41373026 -0.57681119 0.25860268 0.77486354 0.052707415
-2.1222265 -1.5035489 -0.0027502168 0.21022972 0.23434082 0.9491511 0.052707415
-0.72624427 -1.185166 0.63631797 -0.52132183 0.23850234 0.81935352 0.052707415
-1.7543975 -1.7116421 0.006984158 -0.060870003 0.15418963 0.98616451 0.052707415
-0.80159867 -1.0058868 0.52823997 -0.49528474 0.32011816 0.80759978 0.052707415
-0.80136639 -1.0886192 0.55805498 -0.53297156 0.25930294 0.80542117 0.052707415
-0.66971713 -1.0431452 0.61605382 -0.40165016 0.36886925 0.83821994 0.052707415
-1.5176308 -1.9895234 0.084907994 -0.23287258 0.15578693 0.95994836 0.052707415
-1.3860579 -1.9370923 0.12399524 -0.41135493 0.07572265 0.90832442 0.052707415
-0.94772518 -0.85200322 0.36720741 -0.51814854 0.36966869 0.7712763 0.052707415
-1.2126039 -1.0947802 0.23132233 -0.63232237 0.10821015 0.76711076 0.052707415
-1.2481906 -1.0306133 0.19196682 -0.61678839 0.14476381 0.7737025 0.052707415
-1.0813071 -0.72457522 0.20812118 -0.51828909 0.42839772 0.74017012 0.052707415
-1.4307611 -1.073692 0.065075971 -0.54169142 0.12424276 0.83134478 0.052707415
-1.0605613 -0.8321265 0.27821109 -0.55704969 0.34115234 0.75717288 0.052707415
-0.80742323 -0.9081946 0.48158315 -0.45241332 0.39261329 0.80073529 0.052707415
-1.1537451 -0.59831643 0.075574309 -0.47895959 0.51975715 0.70742506 0.052707415
-0.26471242 -1.5396956 0.96316361 -0.22278114 0.36958036 0.90209693 0.052707415
-1.5345799 -1.8439932 0.0610658 -0.26784137 0.10324834 0.95791483 0.052707415
-1.4832835 -1.7085018 0.068364695 -0.37604296 0.043660238 0.92557305 0.052707415
-1.3247327 -1.0677062 0.13876951 -0.59608167 0.11955727 0.79397273 0.052707415
-0.85863531 -1.7966857 0.57120758 -0.73703802 -0.022549652 0.675475 0.052707415
-1.1583269 -1.0893294 0.27577507 -0.63922793 0.11897423 0.75975841 0.052707415
-1.0365412 -1.0800143 0.37668404 -0.63173777 0.15594232 0.75933486 0.052707415
-0.95846903 -1.0881202 0.44226387 -0.61383933 0.18014123 0.76860291 0.052707415
-0.88178176 -1.197127 0.52647436 -0.61930609 0.14400038 0.77183151 0.052707415
-0.85023916 -0.79757947 0.39796573 -0.42993003 0.45984527 0.7769829 0.052707415
-1.4946285 -1.5145955 0.056665424 -0.42219868 0.026523815 0.90611517 0.052707415
-1.6557522 -1.7974539 0.029790366 -0.14057697 0.13879135 0.98029333 0.052707415
-1.6784309 -1.7765894 0.02377329 -0.1221929 0.14169376 0.98233998 0.052707415
-1.2625288 -1.7185676 0.19266927 -0.58451617 -0.02716982 0.81092703 0.052707415
-1.1547775 -1.7976567 0.27401388 -0.64717782 -0.035938308 0.76149148 0.052707415
-1.265563 -1.7611551 0.18927725 -0.57481301 -0.01959691 0.81805009 0.052707415
-1.0029857 -1.0847462 0.40542591 -0.62590152 0.16461609 0.76233119 0.052707415
-1.0732272 -1.0784656 0.34568548 -0.63646162 0.14557256 0.75744653 0.052707415
-1.1815022 -1.0371622 0.24733654 -0.62850255 0.14868706 0.76346362 0.052707415
-1.3537787 -1.0710309 0.11780614 -0.58355498 0.11870182 0.8033514 0.052707415
-1.3215156 -1.1463332 0.15088192 -0.60024458 0.077595867 0.79604357 0.052707415
-1.3850964 -1.2188746 0.11076388 -0.56398028 0.05250242 0.82411754 0.052707415
-1.320212 -1.0617571 0.14126161 -0.59752196 0.12295099 0.7923702 0.052707415
-0.90864104 -1.2448868 0.51200742 -0.64336878 0.10391615 0.75847083 0.052707415
-1.0585639 -1.0195769 0.34479114 -0.61957014 0.19117799 0.76130402 0.052707415
-1.1491668 -1.1111424 0.28676617 -0.64336377 0.10727637 0.75800717 0.052707415
-1.2430562 -2.0340841 0.20940922 -0.53783429 0.063287176 0.84067178 0.052707415
-1.2594603 -1.843585 0.19234048 -0.56425488 -0.0024731741 0.82559693 0.052707415
-0.61243933 -0.95849073 0.59828949 -0.30123895 0.45775232 0.83649141 0.052707415
-0.88775182 -0.90338242 0.43063557 -0.50666064 0.355373 0.78549665 0.052707415
-0.95020151 -1.2380178 0.47542903 -0.65298384 0.090665981 0.75192541 0.052707415
-1.0762928 -1.7354337 0.348784 -0.68955266 -0.049954996 0.72251064 0.052707415
-0.53986472 -1.5412658 0.84229255 -0.52937919 0.18502805 0.82796276 0.052707415
-1.4333413 -0.94901484 0.03916223 -0.53648269 0.19951044 0.81998897 0.052707415
-1.5521653 -0.56375664 -0.20082356 -0.39039716 0.51493144 0.76317471 0.052707415
-1.6601365 -0.62961578 -0.21023995 -0.33979052 0.46568137 0.81711888 0.052707415
-0.71909159 -1.1430395 0.62771022 -0.49586317 0.27055246 0.82517946 0.052707415
-1.5312282 -1.7075229 0.050413277 -0.32174402 0.062870659 0.94473702 0.052707415
-2.0001547 -1.8587936 0.061640348 0.21521471 0.26733774 0.93926203 0.052707415
-1.2697316 -1.7922579 0.18577684 -0.56561732 -0.01219071 0.82457775 0.052707415
-1.3202263 -0.79863906 0.069653429 -0.55510902 0.31407467 0.77020198 0.052707415
-1.2538562 -0.92478234 0.16273218 -0.59787828 0.21894179 0.77110702 0.052707415
-1.6493226 -0.67765927 -0.17966895 -0.35799074 0.42598176 0.83089238 0.052707415
-0.74685329 -1.1370513 0.60869455 -0.51511091 0.25766906 0.81747627 0.052707415
-1.4516658 -0.766119 -0.032959599 -0.50033855 0.33894515 0.79672927 0.052707415
-0.65698934 -0.9881869 0.59614271 -0.3607561 0.41428006 0.83559984 0.052707415
-0.90336335 -1.0875806 0.48508537 -0.59146404 0.20573702 0.77964258 0.052707415
-1.009497 -0.95109028 0.36332226 -0.58527148 0.26143745 0.76753354 0.052707415
-0.940597 -1.1960995 0.47786459 -0.63977975 0.11823396 0.75940937 0.052707415
-0.88230407 -0.94179428 0.45083925 -0.52070987 0.32704863 0.78860664 0.052707415
-1.8544276 -1.8428195 0.033903424 0.088680573 0.22406451 0.97053123 0.052707415
-0.9334814 -1.0679045 0.45683759 -0.59771371 0.2054897 0.77492726 0.052707415
-1.0892411 -1.0754449 0.33164418 -0.63714868 0.14312676 0.75733501 0.052707415
-1.3742131 -1.1746475 0.11504649 -0.57284689 0.068898357 0.81676155 0.052707415
-0.83648247 -1.7393467 0.5967719 -0.72909528 -0.015801001 0.68422979 0.052707415
-0.91208351 -1.5891362 0.52264279 -0.71154344 -0.021575153 0.7023108 0.052707415
-1.2531999 -0.82321203 0.12892435 -0.57312697 0.3006492 0.76232249 0.052707415
-1.566828 -1.9861369 0.073969387 -0.17349675 0.17489591 0.96918023 0.052707415
-1.4370701 -1.8429414 0.094835825 -0.38382345 0.061514601 0.92135525 0.052707415
-1.2923213 -0.76390332 0.074837342 -0.55043423 0.3465094 0.75957447 0.052707415
-1.1981972 -1.6127295 0.2479175 -0.63925481 -0.045114905 0.76767045 0.052707415
-1.2565086 -1.8666271 0.19436136 -0.56218076 0.0032015068 0.82700819 0.052707415
-0.99876773 -1.9883696 0.41370395 -0.71565926 -0.0062686712 0.69842142 0.052707415
-1.3176541 -1.0359483 0.13893098 -0.596578 0.13848068 0.79051739 0.052707415
-1.2574544 -1.0833863 0.19327416 -0.62039024 0.11147963 0.77632999 0.052707415
-2.2305627 -1.5978804 0.05250835 0.30296919 0.26431006 0.91561449 0.052707415
-1.0739511 -0.73021299 0.21651815 -0.51843226 0.42581245 0.74156034 0.052707415
-1.0336896 -1.0120442 0.36293352 -0.61224198 0.20524153 0.76356769 0.052707415
-0.7299704 -1.9768558 0.71671999 -0.75555068 0.034801885 0.65416515 0.052707415
-1.3424401 -1.1408658 0.13475639 -0.59035194 0.081458345 0.80302501 0.052707415
-1.0460093 -1.0569715 0.36391783 -0.6274308 0.168626 0.7601946 0.052707415
-1.3418164 -1.0329317 0.12039049 -0.58679897 0.14062236 0.79742855 0.052707415
-1.3751307 -1.8268802 0.12283494 -0.45724165 0.031784642 0.88877434 0.052707415
-0.85521364 -0.9524864 0.47290406 -0.50817865 0.33247903 0.79448861 0.052707415
-0.85674173 -0.93947691 0.46640575 -0.5031929 0.34201086 0.79361546 0.052707415
-1.2668126 -1.7308991 0.18921179 -0.57915562 -0.024364378 0.81485283 0.052707415
-1.9735659 -1.9158777 0.072185814 0.21055086 0.27798602 0.93722576 0.052707415
-0.89626771 -0.85868406 0.40398771 -0.49122155 0.38796577 0.77986151 0.052707415
-1.0730553 -0.79758376 0.25288016 -0.54693091 0.36679992 0.7525453 0.052707415
-1.2588904 -1.8404225 0.19274199 -0.56536782 -0.0034920464 0.82483149 0.052707415
-0.97006285 -0.91264963 0.37832254 -0.55509788 0.30914262 0.77220279 0.052707415
-0.57896107 -1.0573667 0.66128808 -0.31854159 0.41084421 0.85424721 0.052707415
-1.1866267 -1.0179034 0.23923104 -0.6245805 0.16090567 0.7642045 0.052707415
-1.3916644 -0.77336174 0.0092307227 -0.52733743 0.3322413 0.78200448 0.052707415
