# .PCD v0.7 - Point Cloud Data file format
VERSION 0.7
FIELDS x y z normal_x normal_y normal_z curvature
SIZE 4 4 4 4 4 4 4
TYPE F F F F F F F
COUNT 1 1 1 1 1 1 1
WIDTH 52
HEIGHT 1
VIEWPOINT 0 0 0 1 0 0 0
POINTS 52
DATA ascii
0.31383911 0.06742239 1.0755312 -0.326785 -0.17539293 0.92868125 0.025070177
0.11038832 0.3668834 1.0571103 -0.41343179 -0.12729652 0.90159291 0.025070177
0.21041493 -0.29857415 1.0179125 -0.32442644 0.013614559 0.94581294 0.025070177
0.14909866 0.18023214 1.04345 -0.28215706 -0.14168985 0.94884741 0.025070177
0.72287184 -0.073216379 1.3698976 -0.87554091 -0.13922346 0.46264991 0.025070177
-0.13762428 0.07871905 0.95741922 -0.28825295 -0.067070857 0.95520246 0.025070177
0.39555103 0.081799924 1.1118454 -0.41383392 -0.22336867 0.8825236 0.025070177
0.30574986 0.18672937 1.1001167 -0.38349983 -0.24665448 0.88999408 0.025070177
0.67328244 -0.22476527 1.2913164 -0.79008931 0.13313827 0.59835869 0.025070177
0.0811176 0.23388001 1.0298489 -0.29582578 -0.10242888 0.94973439 0.025070177
0.21351039 0.15043844 1.0581272 -0.29528987 -0.16985694 0.94018751 0.025070177
0.25159541 -0.046988945 1.0404124 -0.26150966 -0.097731188 0.96024024 0.025070177
0.15475571 0.45224711 1.0967308 -0.52727479 -0.1938795 0.82727993 0.025070177
-0.36227179 -0.27242652 0.72759074 -0.67292297 -0.4561201 0.58234799 0.025070177
0.30698991 0.13466986 1.0872856 -0.35232151 -0.2147774 0.91090077 0.025070177
-0.29178545 0.06905406 0.89829111 -0.43315211 -0.068351626 0.89872539 0.025070177
-0.026885664 0.31101164 0.99811298 -0.34648737 -0.0010206749 0.93805408 0.025070177
-0.13153167 -0.39374644 0.85387111 -0.52737439 -0.32638186 0.7844432 0.025070177
0.25551692 0.21297707 1.0862163 -0.36117873 -0.22396238 0.90520209 0.025070177
0.13738371 0.17516257 1.0392781 -0.27546939 -0.13425495 0.95188874 0.025070177
0.29392666 0.099713221 1.0748628 -0.32404354 -0.18663852 0.92744911 0.025070177
0.1873019 0.097450517 1.0418563 -0.25925112 -0.14059253 0.95552218 0.025070177
0.31553638 0.4294821 1.2077426 -0.6125682 -0.4110699 0.67511612 0.025070177
0.15475571 0.45224711 1.0967308 -0.52727479 -0.1938795 0.82727993 0.025070177
-0.23321921 -0.28741282 0.83307207 -0.52829665 -0.36247307 0.76779944 0.025070177
0.26415712 -0.16065311 1.0358908 -0.281486 -0.035766028 0.95889854 0.025070177
0.30645123 -0.19557083 1.0484345 -0.31581295 0.00077004283 0.94882119 0.025070177
0.36594915 -0.21454573 1.070344 -0.36604762 0.038954113 0.92978048 0.025070177
0.3953217 0.23631358 1.1655349 -0.51334685 -0.35578468 0.78095597 0.025070177
0.24625899 0.32117811 1.1122484 -0.44579104 -0.26773822 0.8541584 0.025070177
0.21920179 0.25363034 1.0814621 -0.36693409 -0.21243325 0.90566635 0.025070177
0.24108486 -0.019720018 1.0405256 -0.25764981 -0.10993256 0.95996428 0.025070177
-0.16119356 -0.46592078 0.79386514 -0.62685651 -0.40506303 0.66556358 0.025070177
0.22767839 0.15242159 1.063024 -0.30444252 -0.17847829 0.93566036 0.025070177
0.26593146 0.082092881 1.0622712 -0.2963098 -0.16478974 0.94076824 0.025070177
0.11817139 0.16048077 1.0318936 -0.26272815 -0.12248317 0.95706415 0.025070177
0.23389006 0.20578323 1.0761988 -0.34103459 -0.20458095 0.91751951 0.025070177
0.31244966 0.193092 1.1048571 -0.39395365 -0.25565213 0.88286042 0.025070177
0.63936633 0.15453751 1.3692189 -0.78478158 -0.43356118 0.44287989 0.025070177
0.095304422 0.36175847 1.0496358 -0.40312454 -0.11008519 0.90849978 0.025070177
0.31060117 -0.37888515 1.0648257 -0.41806662 0.15358794 0.89533848 0.025070177
0.56691229 -0.046178762 1.1860992 -0.61660296 -0.14390026 0.77401131 0.025070177
-0.33036157 -0.36286741 0.68747824 -0.69397491 -0.50715804 0.51106709 0.025070177
0.32741958 -0.65093559 1.184258 -0.6353451 0.4485355 0.62861156 0.025070177
0.21897356 -0.60800844 1.0659487 -0.60639262 0.24191757 0.75747204 0.025070177
-0.22871616 -0.27255785 0.84285921 -0.51086652 -0.34671569 0.78664076 0.025070177
0.27316436 0.099035352 1.0676849 -0.30820656 -0.17666543 0.93477166 0.025070177
-0.27952904 -0.39787376 0.71952063 -0.66928643 -0.4907091 0.55790699 0.025070177
0.19323795 0.1873928 1.0583541 -0.30542466 -0.1702047 0.93688107 0.025070177
0.44344962 -0.43951708 1.1595109 -0.55020201 0.33875373 0.76323235 0.025070177
0.67328244 -0.22476527 1.2913164 -0.79008931 0.13313827 0.59835869 0.025070177
0.24300705 -0.89988929 1.3252667 -0.75770795 0.55205333 0.34801689 0.025070177
