# .PCD v0.7 - Point Cloud Data file format
VERSION 0.7
FIELDS x y z normal_x normal_y normal_z curvature
SIZE 4 4 4 4 4 4 4
TYPE F F F F F F F
COUNT 1 1 1 1 1 1 1
WIDTH 601
HEIGHT 1
VIEWPOINT 0 0 0 1 0 0 0
POINTS 601
DATA ascii
-0.46618915 -0.36948314 0.45785612 1.0768425 0.037364833 -0.40424094 0.13665965
-0.14898005 -0.47355139 0.93643582 0.61619633 -0.30542868 -0.73494434 0.13665965
-0.49004218 -0.4356257 0.37981093 1.1489426 0.0058154245 -0.31258729 0.13665965
-0.4572725 -0.36653623 0.481051 1.0547751 0.028166262 -0.42346534 0.13665965
-0.42029276 -0.52549493 0.60039657 0.95291179 -0.1956874 -0.42727655 0.13665965
-0.36006346 -0.42823771 0.67972839 0.86676145 -0.13753001 -0.54637027 0.13665965
-0.40481246 -0.29313147 0.59400755 0.94283223 0.043810148 -0.55015749 0.13665965
-0.21957056 -0.42284039 0.85335398 0.6907112 -0.22042659 -0.69528514 0.13665965
-0.17697459 -0.19845317 0.85497266 0.64954787 -0.022899583 -0.83166099 0.13665965
-0.13450782 -0.083283901 0.88741308 0.59550565 0.058513965 -0.9274056 0.13665965
-0.20601746 -0.45959842 0.87949961 0.67192125 -0.26534623 -0.69429004 0.13665965
-0.53870362 -0.82276422 0.53561336 1.0511922 -0.47246107 -0.19289193 0.13665965
-0.47974393 -0.41480759 0.41554672 1.116284 0.010263884 -0.34949479 0.13665965
-0.34616277 -0.28101608 0.68340218 0.84989917 0.0050786315 -0.63112038 0.13665965
-0.15633231 -0.36164215 0.89340651 0.63407183 -0.18980305 -0.77001929 0.13665965
-0.31710795 -0.31571993 0.72246015 0.81143624 -0.051257201 -0.64575797 0.13665965
-0.36103958 -0.36241034 0.66621673 0.87346441 -0.066077165 -0.57267696 0.13665965
-0.29553485 -0.37059608 0.75652409 0.78228045 -0.12218346 -0.64363986 0.13665965
-0.47173268 -0.4067522 0.44026285 1.0933677 0.0062145102 -0.37203518 0.13665965
-0.25847861 -0.35211957 0.79539317 0.73882598 -0.12622879 -0.68808258 0.13665965
-0.075648814 -0.69586867 1.1239184 0.50779068 -0.5544197 -0.73396254 0.13665965
-0.028264919 -0.60572237 1.0938394 0.4990541 -0.47933993 -0.77843094 0.13665965
-0.47009557 -0.38994592 0.44560251 1.0883466 0.021658864 -0.38462031 0.13665965
0.020741189 -0.78330714 1.2537097 0.42535567 -0.65729171 -0.77370048 0.13665965
-0.24725127 -0.2869373 0.79808182 0.72669733 -0.067779675 -0.72838157 0.13665965
-0.32137483 -0.31080073 0.71671021 0.81702876 -0.043248158 -0.64354444 0.13665965
-0.29127768 -0.32116869 0.75418454 0.77847236 -0.074366242 -0.67008859 0.13665965
-0.37306216 -0.27208921 0.6458348 0.88889849 0.035802271 -0.60391921 0.13665965
-0.16566354 -0.35484436 0.8840161 0.64302218 -0.17861573 -0.76571316 0.13665965
-0.24966563 -0.41478047 0.81974745 0.72406065 -0.19590801 -0.67120337 0.13665965
-0.35162771 -0.28835431 0.67590433 0.85820472 0.0020796626 -0.62085986 0.13665965
-0.48044828 -0.41555294 0.41326591 1.1183871 0.010630362 -0.34742379 0.13665965
-0.50511616 -0.44583696 0.31756949 1.2049997 0.026442597 -0.26246977 0.13665965
-0.35115072 -0.37886775 0.68335259 0.8577823 -0.091311127 -0.57758474 0.13665965
-0.46957755 -0.43895918 0.4478294 1.0867777 -0.03245816 -0.36095566 0.13665965
-0.40198073 -0.32692549 0.59733993 0.94041729 0.0069999648 -0.53549808 0.13665965
-0.50229466 -0.46712521 0.32958931 1.193873 -0.0035931861 -0.26027161 0.13665965
-0.28357989 -0.37222418 0.77110571 0.76738185 -0.13152254 -0.65515417 0.13665965
-0.47925389 -0.37590361 0.42032579 1.1121873 0.050386705 -0.37264878 0.13665965
-0.40451401 -0.34259745 0.59282404 0.94552863 -0.006666142 -0.52364922 0.13665965
-0.40361059 -0.32121727 0.59458971 0.94297606 0.014399338 -0.53623396 0.13665965
-0.42510805 -0.37120077 0.55374759 0.98495722 -0.015372203 -0.47752932 0.13665965
-0.30199713 -0.33056405 0.74255025 0.79185015 -0.076752298 -0.65470636 0.13665965
-0.38300768 -0.35445479 0.63053864 0.90861577 -0.039061964 -0.54784268 0.13665965
-0.36932904 -0.29428887 0.65049422 0.88496745 0.010618332 -0.59631985 0.13665965
-0.28044996 -0.36186323 0.77274376 0.7641722 -0.12279262 -0.662664 0.13665965
-0.30708349 -0.39579454 0.74736184 0.79518837 -0.14097205 -0.62107903 0.13665965
-0.35905269 -0.42572632 0.68070108 0.86551571 -0.13557668 -0.54861319 0.13665965
-0.49201587 -0.42492801 0.37300289 1.1552489 0.02116077 -0.3130475 0.13665965
-0.17113806 -0.36829489 0.88262528 0.6474821 -0.18929814 -0.75595593 0.13665965
-0.32619289 -0.49989882 0.75521153 0.80420464 -0.24180795 -0.56425327 0.13665965
-0.42091578 -0.33190975 0.56234038 0.97538662 0.021004071 -0.50476605 0.13665965
-0.45972368 -0.46599817 0.4807705 1.0574554 -0.077741481 -0.37102118 0.13665965
-0.45116872 -0.35221612 0.49685121 1.0395708 0.035054639 -0.44290322 0.13665965
-0.44376114 -0.37265193 0.51315582 1.0241292 0.0045736558 -0.44509783 0.13665965
-0.22213648 -0.34831434 0.83170587 0.69919431 -0.14307907 -0.72245359 0.13665965
-0.48244977 -0.45757312 0.40793589 1.123492 -0.032528389 -0.32177338 0.13665965
-0.40185621 -0.49968237 0.62826717 0.92422551 -0.18281168 -0.46389386 0.13665965
-0.27943859 -0.3452231 0.77104276 0.76363868 -0.10638366 -0.67091566 0.13665965
-0.48837227 -0.41695198 0.38663307 1.1428771 0.022913501 -0.3270604 0.13665965
-0.48364034 -0.38276967 0.40595356 1.1255198 0.050485332 -0.35847825 0.13665965
-0.33367968 -0.36756235 0.70660698 0.83311528 -0.092634648 -0.60326815 0.13665965
-0.42424935 -0.30919927 0.55746156 0.97985923 0.047521759 -0.51241243 0.13665965
-0.35137093 -0.3104946 0.67659158 0.85888475 -0.020347252 -0.6096344 0.13665965
-0.4859646 -0.48213211 0.39865875 1.1322464 -0.054676309 -0.30206871 0.13665965
-0.49992415 -0.37246519 0.35323891 1.1749207 0.09023957 -0.3244136 0.13665965
-0.34798732 -0.39822602 0.69151211 0.85168827 -0.1143871 -0.57327873 0.13665965
-0.45633844 -0.42343721 0.48387596 1.0530306 -0.034134872 -0.39615613 0.13665965
-0.42806867 -0.36155739 0.54744852 0.99075574 -0.0019614357 -0.47762513 0.13665965
-0.39215633 -0.3398346 0.6144315 0.92387336 -0.015556267 -0.54257852 0.13665965
-0.48365784 -0.3846789 0.40563434 1.1257819 0.048549004 -0.35729215 0.13665965
-0.52034748 -0.58104783 0.24579325 1.2661513 -0.090768829 -0.14238366 0.13665965
-0.48303342 -0.38781914 0.40719351 1.1242735 0.044260237 -0.35689241 0.13665965
-0.29850414 -0.35335162 0.74991804 0.78686708 -0.10240357 -0.64801008 0.13665965
-0.37759006 -0.4284541 0.6509161 0.89481193 -0.1233566 -0.52309531 0.13665965
-0.42267418 -0.37489036 0.5588882 0.98011601 -0.021921815 -0.47962505 0.13665965
-0.46410304 -0.44639584 0.46482846 1.0713401 -0.048985712 -0.36967903 0.13665965
-0.48436517 -0.3819606 0.40378827 1.127557 0.052530732 -0.35726351 0.13665965
-0.34016618 -0.35283673 0.69557327 0.84285194 -0.072434917 -0.6023432 0.13665965
-0.51789016 -0.54343456 0.24885581 1.2636181 -0.049515616 -0.16439971 0.13665965
-0.33186042 -0.54861116 0.77053082 0.79890156 -0.29359135 -0.54566312 0.13665965
-0.46217313 -0.31477326 0.47596869 1.0601581 0.086916983 -0.44523242 0.13665965
-0.28430983 -0.42079204 0.78204483 0.76381946 -0.18199489 -0.63532168 0.13665965
-0.45442647 -0.38525409 0.48742911 1.0488713 0.0047292588 -0.41878751 0.13665965
-0.43398607 -0.430516 0.53996843 1.0008124 -0.069936447 -0.4350754 0.13665965
-0.47684851 -0.41538504 0.42466274 1.1078637 0.0049147801 -0.35596919 0.13665965
-0.4971413 -0.34002084 0.37267372 1.1582551 0.11616027 -0.35432065 0.13665965
-0.39376333 -0.34361842 0.61179787 0.92669505 -0.017983684 -0.53843313 0.13665965
-0.42888278 -0.31049967 0.54836464 0.98893195 0.05121807 -0.5044685 0.13665965
-0.46162722 -0.37973678 0.46916923 1.0661205 0.02027199 -0.40767133 0.13665965
-0.42963514 -0.48506269 0.56324732 0.98294967 -0.13748194 -0.42249814 0.13665965
-0.42701972 -0.45228338 0.56008637 0.98331517 -0.10239792 -0.43853477 0.13665965
-0.45996064 -0.3840813 0.47333527 1.062205 0.013398434 -0.40862834 0.13665965
-0.35050336 -0.52713978 0.73121738 0.83190197 -0.25629678 -0.52793521 0.13665965
-0.33603987 -0.37202138 0.704027 0.83621866 -0.095570572 -0.59858429 0.13665965
-0.39132455 -0.52038038 0.65755683 0.89968669 -0.21662448 -0.4742291 0.13665965
-0.4933911 -0.34888098 0.38213018 1.1489196 0.10101296 -0.35718334 0.13665965
-0.48708442 -0.40838194 0.39175054 1.1382785 0.029709602 -0.33514604 0.13665965
-0.49688724 -0.2942127 0.39035368 1.1440601 0.15790725 -0.38900313 0.13665965
-0.50585419 -0.46936381 0.31274012 1.2088323 0.0024378342 -0.24714395 0.13665965
-0.40870267 -0.45652938 0.60017151 0.94601566 -0.12632711 -0.46710461 0.13665965
-0.27730554 -0.50782013 0.82271045 0.7401908 -0.28009993 -0.61458462 0.13665965
-3.3709102 -2.135077 2.7761409 0.30644488 -2.6776614 0.045440011 0.13665965
-0.3733176 -0.39233479 0.65092444 0.89130974 -0.087656096 -0.54354477 0.13665965
-0.51484704 -0.59229547 0.29726079 1.2228684 -0.127657 -0.17126638 0.13665965
-0.38476086 -0.38910615 0.63122344 0.91042107 -0.074231349 -0.52945131 0.13665965
-0.48827901 -0.31342238 0.40834334 1.1256315 0.12616166 -0.39379072 0.13665965
-0.45466235 -0.40624011 0.48715511 1.0495185 -0.01751427 -0.40768296 0.13665965
-0.479727 -0.47106716 0.41917127 1.1135768 -0.052788593 -0.32286042 0.13665965
-0.4695192 -0.4408831 0.44818446 1.0864923 -0.034707624 -0.36020681 0.13665965
-0.51132166 -0.34658766 0.31984937 1.2074262 0.13789606 -0.31206486 0.13665965
-0.28019264 -0.5081858 0.81938368 0.74353147 -0.2788949 -0.61158663 0.13665965
-0.30913037 -0.54339999 0.79964888 0.77021807 -0.30157334 -0.57251191 0.13665965
-0.47469255 -0.42275491 0.43135977 1.101715 -0.0065516266 -0.35715708 0.13665965
-0.42591438 -0.31502879 0.5537324 0.98363507 0.043457009 -0.50648302 0.13665965
-0.49552658 -0.38560614 0.36580798 1.1627661 0.068733796 -0.32730541 0.13665965
-0.34961414 -0.43810225 0.69862872 0.84951323 -0.15645213 -0.5559032 0.13665965
-0.40922087 -0.33406383 0.58426952 0.95370609 0.0067872349 -0.52122825 0.13665965
-0.49075797 -0.47536898 0.37918285 1.1495798 -0.037629157 -0.29156706 0.13665965
-0.40553087 -0.41645092 0.59759969 0.94515455 -0.084554799 -0.4875806 0.13665965
-0.49903613 -0.3072035 0.37864211 1.1544689 0.14986184 -0.37413713 0.13665965
-0.51324147 -0.31532705 0.32758167 1.2024547 0.16943932 -0.33213475 0.13665965
-0.40732858 -0.42220616 0.5951218 0.94795996 -0.089138635 -0.48244298 0.13665965
-0.49810725 -0.43334559 0.34886166 1.1770614 0.024290787 -0.29125366 0.13665965
-0.49442878 -0.41481525 0.36499172 1.1627388 0.036565386 -0.31227317 0.13665965
0.29027456 -0.067949712 1.0683469 0.31152105 -0.10762031 -1.1524419 0.13665965
0.26407605 -0.1080581 1.0651348 0.33178151 -0.13071646 -1.120024 0.13665965
0.24939324 0.2702896 1.0668845 0.2472903 0.1690899 -1.3504887 0.13665965
-0.12708902 -0.029654162 0.89653808 0.57885402 0.10098497 -0.96504658 0.13665965
-0.083748236 -0.20106335 0.92074865 0.56822073 -0.071568921 -0.89559531 0.13665965
0.23222399 0.1193819 1.0497669 0.30149785 0.062525667 -1.2427922 0.13665965
0.018554905 -0.030357763 0.97187346 0.46754023 0.0312845 -1.0511097 0.13665965
-0.10914519 0.0056922329 0.91091877 0.55622464 0.12170259 -0.99887687 0.13665965
-0.094993472 -0.24608649 0.91799879 0.58045852 -0.10779554 -0.86558455 0.13665965
0.50811613 -0.077253714 1.1172891 0.21187504 -0.1907548 -1.2197734 0.13665965
0.14353274 0.089016646 1.0238875 0.36037487 0.074905336 -1.1858063 0.13665965
0.34824419 -0.26026189 1.118685 0.30818948 -0.28461432 -1.0731257 0.13665965
-0.20503947 0.2079231 0.90278655 0.57675612 0.33495861 -1.0768303 0.13665965
-0.013718477 -0.012896757 0.95793521 0.48697704 0.060366571 -1.0439999 0.13665965
-0.081370004 -0.012383915 0.92415082 0.53793293 0.092714243 -1.0048095 0.13665965
-0.11204544 0.14828117 0.93400526 0.51996863 0.23888734 -1.0924037 0.13665965
-0.10241715 0.14160515 0.93713349 0.51446682 0.22873071 -1.093515 0.13665965
0.15523352 -0.026080431 1.0250392 0.37879202 -0.022303799 -1.1206542 0.13665965
-0.13641404 0.21948618 0.94012201 0.51565516 0.30657393 -1.1286941 0.13665965
0.13342176 -0.040161993 1.0177521 0.39456928 -0.025140818 -1.1025022 0.13665965
0.030633101 0.11703567 0.98863149 0.42499313 0.14583388 -1.150111 0.13665965
0.24298693 -0.29517838 1.0943809 0.36220622 -0.28016046 -1.0176115 0.13665965
-0.32062688 0.05329245 0.77533209 0.74436939 0.284803 -0.8746168 0.13665965
0.17010093 -0.18319108 1.0436527 0.39338788 -0.1592914 -1.0409526 0.13665965
0.10512999 0.21650021 1.0265236 0.34785968 0.18973774 -1.2529162 0.13665965
0.02253183 0.13855936 0.98856175 0.42450011 0.16644658 -1.1602875 0.13665965
-0.15520099 -0.15743111 0.87080771 0.62491125 0.0032310495 -0.87016606 0.13665965
0.12512389 0.26744711 1.0399258 0.31917509 0.21919489 -1.2972952 0.13665965
-0.14377132 0.11854926 0.91157907 0.55470616 0.23186009 -1.0520719 0.13665965
-0.15076582 0.066471018 0.89701158 0.57560104 0.19358523 -1.0118709 0.13665965
0.16335183 -0.2770482 1.0593548 0.40461072 -0.23781268 -0.99222165 0.13665965
-0.126537 0.1993378 0.93933862 0.51480329 0.28602463 -1.1199813 0.13665965
0.14569746 0.3020269 1.0507228 0.29513001 0.23576301 -1.3306923 0.13665965
0.14919598 -0.026133105 1.0229871 0.38240919 -0.019938292 -1.1179047 0.13665965
-0.37350491 -0.29967871 0.64414227 0.89177734 0.0087653566 -0.58819073 0.13665965
-0.2155284 -0.21527568 0.82361865 0.68893605 -0.017382875 -0.79224324 0.13665965
-0.012490652 0.0067886706 0.95978111 0.48195788 0.076191999 -1.0567615 0.13665965
-0.31615353 0.22263911 0.84149742 0.67462337 0.41282737 -1.0089298 0.13665965
-0.23403257 0.076366834 0.84763855 0.64768475 0.2484113 -0.96067566 0.13665965
-0.29518569 0.12706287 0.82005918 0.69116563 0.32656789 -0.95090371 0.13665965
0.078014106 -0.11758266 0.99938631 0.4419044 -0.067733303 -1.0320857 0.13665965
0.10808432 0.25639382 1.0337408 0.33319855 0.21839248 -1.2819659 0.13665965
-0.1625621 -0.15095907 0.86555147 0.63078612 0.012954492 -0.86845404 0.13665965
-0.22202012 -0.071615763 0.82682967 0.67421132 0.11675245 -0.87074685 0.13665965
-0.13990167 0.087995 0.90724385 0.5604558 0.20530736 -1.0335089 0.13665965
-0.29302844 0.19409873 0.84567451 0.66335469 0.37672949 -1.004045 0.13665965
0.0040796497 0.2134084 0.99465179 0.41437829 0.23280206 -1.2021483 0.13665965
0.078316197 -0.15998875 1.0030934 0.44704548 -0.10432427 -1.0094717 0.13665965
-0.31387535 0.050561085 0.78016341 0.73779088 0.27799204 -0.87844276 0.13665965
0.37029728 -0.19216524 1.1085161 0.29076555 -0.23598987 -1.1144713 0.13665965
-0.29711902 -0.15109371 0.74994218 0.77044404 0.092998125 -0.75700951 0.13665965
-0.18614677 0.085759789 0.88038331 0.60080659 0.22851703 -1.0013486 0.13665965
-0.18747741 -0.26570868 0.85075885 0.66411889 -0.080714762 -0.78905445 0.13665965
-0.35849649 0.014741214 0.72767919 0.80184501 0.28055793 -0.8113414 0.13665965
0.16235527 0.10356571 1.0303829 0.345474 0.078547522 -1.2034007 0.13665965
-0.36680502 -0.3357254 0.65510607 0.88264298 -0.033569429 -0.57810974 0.13665965
-0.19709019 -0.021630904 0.85242039 0.63924855 0.14553651 -0.92150533 0.13665965
0.18711874 0.27507368 1.0552843 0.28030565 0.19838889 -1.3290013 0.13665965
-0.096732102 0.27225 0.97131497 0.4661153 0.32593235 -1.1905835 0.13665965
0.081651837 0.13852727 1.0089337 0.38564441 0.14008722 -1.1893789 0.13665965
-0.094853617 -0.076577149 0.91210783 0.56113309 0.044451602 -0.95747399 0.13665965
-0.084739581 0.21586119 0.96163923 0.47704577 0.27741867 -1.1562138 0.13665965
-0.17749062 0.17936814 0.90899009 0.56329465 0.29775643 -1.0737665 0.13665965
-0.23923914 0.21570517 0.88641846 0.6041317 0.36046663 -1.0595818 0.13665965
-0.048345633 -0.14393669 0.93858039 0.53437239 -0.036534753 -0.94809175 0.13665965
-0.030564556 -0.15081283 0.94876248 0.52173996 -0.050601289 -0.95497608 0.13665965
0.089772999 -0.25039777 1.0216473 0.4474386 -0.18792231 -0.96991181 0.13665965
0.083159313 0.099561192 1.005314 0.39513117 0.10881881 -1.164623 0.13665965
0.16711086 -0.27888393 1.0613257 0.40255693 -0.24071227 -0.99305409 0.13665965
0.57520598 -0.24957868 1.1686503 0.21307392 -0.34586316 -1.1458732 0.13665965
-0.2950567 -0.13048652 0.75475341 0.76428169 0.11030982 -0.77168596 0.13665965
0.06551329 0.041372031 0.99445343 0.42073837 0.069865279 -1.1190794 0.13665965
-0.3849152 -0.080764525 0.66730052 0.86720878 0.22148006 -0.71398199 0.13665965
-0.27537143 -0.15425238 0.77111346 0.74579597 0.075681031 -0.77518451 0.13665965
-0.34810096 -0.12878156 0.69842297 0.82972002 0.1499766 -0.72047925 0.13665965
-0.30899692 -0.11982428 0.74242276 0.77866495 0.12945646 -0.76531321 0.13665965
-0.12781723 -0.027417339 0.89633805 0.57899773 0.10326508 -0.96596086 0.13665965
0.08043097 0.031804159 0.99947178 0.41320619 0.05569949 -1.1204786 0.13665965
0.018330624 -0.0048770276 0.97278446 0.46262604 0.052622933 -1.0663404 0.13665965
-0.22460218 -0.051331829 0.82776994 0.67244315 0.13591583 -0.88160461 0.13665965
-0.1398482 0.060167547 0.90200251 0.56809729 0.18265329 -1.0147539 0.13665965
-0.12525171 -0.057101063 0.89510858 0.582802 0.076506019 -0.94937569 0.13665965
-0.0087954858 0.21835092 0.99114776 0.42160955 0.24258088 -1.1990159 0.13665965
0.37522772 -0.062956668 1.0888879 0.26853749 -0.13398081 -1.1859343 0.13665965
0.18793735 0.076250069 1.0362357 0.33738646 0.046677019 -1.1971029 0.13665965
0.18989319 0.16607036 1.0426891 0.31250501 0.11552209 -1.255868 0.13665965
-0.016736247 -0.020246746 0.95610869 0.49064952 0.055591047 -1.037848 0.13665965
-0.096794248 -0.077555068 0.91092217 0.56288201 0.044554964 -0.95565742 0.13665965
-0.33041114 -0.098616526 0.7243138 0.80009234 0.16355614 -0.75843006 0.13665965
-0.22799532 0.035586067 0.84189695 0.65390122 0.21145771 -0.93674511 0.13665965
0.25950211 0.15226626 1.0578648 0.27772161 0.076864451 -1.274859 0.13665965
-0.14788121 -0.067555264 0.87993109 0.60428894 0.079174332 -0.92771292 0.13665965
-0.32705978 0.029407322 0.76205069 0.75960863 0.26983142 -0.8513571 0.13665965
-0.12238694 -0.058720112 0.89673519 0.58069003 0.073648438 -0.95028979 0.13665965
-0.33902138 -0.065698624 0.72308564 0.80243069 0.19856611 -0.77232826 0.13665965
0.088277571 -0.24886239 1.0206609 0.44829533 -0.18600337 -0.96989673 0.13665965
-0.0092364168 -0.10579064 0.95831031 0.50006819 -0.020673202 -0.99209762 0.13665965
0.024455165 0.28014725 1.0149448 0.37827262 0.27353668 -1.2597208 0.13665965
0.29435581 -0.093157254 1.0720676 0.31368959 -0.12947312 -1.1398979 0.13665965
0.13118498 0.040710039 1.0175666 0.37936655 0.041583978 -1.1499538 0.13665965
0.12198964 0.04756688 1.0147924 0.38344279 0.050900951 -1.1499695 0.13665965
0.23717912 -0.16399118 1.0643263 0.35380945 -0.16731283 -1.0794005 0.13665965
-0.034908231 0.2864227 0.99749786 0.41631681 0.30608174 -1.2343909 0.13665965
-0.0099287825 0.10720883 0.97160798 0.45565039 0.15660323 -1.1224625 0.13665965
-0.20650645 0.060848828 0.86204177 0.62648565 0.21974663 -0.96985996 0.13665965
-0.24381919 -0.17166691 0.79919612 0.71367157 0.039895054 -0.79268467 0.13665965
0.054349847 0.14775909 1.001048 0.40068835 0.15931892 -1.1823415 0.13665965
0.18977638 0.10938784 1.038368 0.32800904 0.071868859 -1.2188972 0.13665965
0.095325246 0.054157101 1.0060339 0.39857331 0.067403354 -1.1415619 0.13665965
0.077760912 0.13753323 1.0075487 0.38840619 0.14101154 -1.1868668 0.13665965
-0.19423461 -0.071643807 0.84765464 0.64730513 0.10077641 -0.8919577 0.13665965
-0.23650084 0.0088573098 0.82994229 0.6695016 0.19426174 -0.91205889 0.13665965
-0.34267917 -0.19523142 0.69373894 0.8352834 0.08499752 -0.68412369 0.13665965
0.20315459 -0.23815124 1.0660361 0.37975928 -0.21802413 -1.0279864 0.13665965
-0.0098779788 0.24113707 0.99552059 0.41479591 0.26034796 -1.2146001 0.13665965
-0.33428368 -0.074753135 0.72573853 0.7989555 0.18725592 -0.77073854 0.13665965
-0.089698233 0.055488978 0.92795801 0.5286175 0.15317407 -1.0430502 0.13665965
-0.088963896 -0.11301595 0.91455495 0.56220335 0.0097563295 -0.94008833 0.13665965
0.069601186 0.037496146 0.99575382 0.41894957 0.064959422 -1.1186898 0.13665965
0.17227252 0.030452076 1.0303937 0.35709691 0.01662478 -1.1620147 0.13665965
0.12414649 -0.0071583246 1.0141679 0.39391094 0.0057074935 -1.1176474 0.13665965
-0.19319855 -0.25930366 0.84530157 0.66945243 -0.071526095 -0.7876693 0.13665965
0.45496681 0.05508111 1.0944887 0.20630893 -0.070809983 -1.281867 0.13665965
-0.08709871 0.18634881 0.95377076 0.48860565 0.25593758 -1.1338297 0.13665965
0.27793008 -0.36239794 1.1276023 0.34726939 -0.34842837 -1.0015759 0.13665965
0.32196507 0.031197984 1.0699998 0.27547005 -0.040594928 -1.2222654 0.13665965
-0.084509589 0.0081472984 0.92455685 0.53590864 0.11147173 -1.0157503 0.13665965
0.099128589 0.077031866 1.0088464 0.39067736 0.084079303 -1.1577892 0.13665965
0.0024345075 -0.18245733 0.96878678 0.50100309 -0.092926309 -0.95727175 0.13665965
0.057914048 0.1317133 1.0001897 0.40285808 0.14519544 -1.1734152 0.13665965
-0.093138456 -0.17712042 0.91322482 0.57364559 -0.045434915 -0.90204662 0.13665965
0.49290857 -0.10735636 1.1195254 0.22382361 -0.20903768 -1.1984724 0.13665965
0.10048358 -0.27111465 1.0308311 0.44180438 -0.21023615 -0.9654724 0.13665965
-0.044672471 -0.17567693 0.94240648 0.53513026 -0.066425756 -0.93328857 0.13665965
0.098771036 0.21785831 1.0249557 0.35137016 0.19353794 -1.2509521 0.13665965
0.15893006 0.087262765 1.028394 0.35162148 0.067160636 -1.1915143 0.13665965
-0.23961093 -0.091002479 0.81021386 0.69589376 0.11019176 -0.84455454 0.13665965
-0.073819652 -0.047756318 0.92553914 0.53910059 0.059046581 -0.98780113 0.13665965
0.0011846543 0.12685302 0.97882527 0.44245195 0.16702348 -1.141415 0.13665965
0.16024511 0.059927307 1.0274926 0.35746169 0.045002986 -1.1749125 0.13665965
0.027000744 0.18722123 0.99775457 0.40712681 0.2021981 -1.195552 0.13665965
0.47070399 -0.27850363 1.1556129 0.25678673 -0.33721444 -1.1033105 0.13665965
0.10607363 0.28373134 1.0380757 0.32521996 0.23953636 -1.3003733 0.13665965
0.28701031 0.24740764 1.0710044 0.23464185 0.13707469 -1.3489865 0.13665965
0.032309219 0.25247878 1.0115536 0.38259843 0.24930955 -1.2437649 0.13665965
-0.19050506 0.20598938 0.90987194 0.56496054 0.32537532 -1.0849212 0.13665965
0.19737825 -0.18432447 1.0538819 0.37798217 -0.17016436 -1.0522894 0.13665965
-0.02367357 0.22941466 0.98818439 0.42829591 0.25800908 -1.1991096 0.13665965
-0.25980401 -0.26860189 0.78403533 0.74007201 -0.042248916 -0.72607327 0.13665965
-0.061606172 0.13140175 0.95367759 0.48636353 0.20039611 -1.110216 0.13665965
-0.31152141 0.14752561 0.81542516 0.7003544 0.35305929 -0.95350879 0.13665965
-0.0035180573 -0.24687284 0.97385591 0.51008183 -0.14824793 -0.92168927 0.13665965
-0.065162167 -0.12994212 0.92859805 0.54561108 -0.016434489 -0.94551855 0.13665965
-0.33226174 -0.31773388 0.70305973 0.83193314 -0.042316217 -0.62808776 0.13665965
-0.096960671 -0.20797937 0.91278094 0.57960755 -0.071716443 -0.88338417 0.13665965
-0.36405501 -0.24571788 0.66061258 0.87248123 0.053963851 -0.62992865 0.13665965
0.081890211 0.17814215 1.0141265 0.37410292 0.17065559 -1.2159981 0.13665965
-0.089350305 -0.14623992 0.91449493 0.56704241 -0.019498913 -0.92123097 0.13665965
-0.3598606 -0.28153229 0.6644879 0.86979377 0.015474484 -0.61477363 0.13665965
-0.0062921736 -0.17425108 0.96344328 0.50646293 -0.081935324 -0.95659578 0.13665965
-0.079713926 -0.083577178 0.92059338 0.55014211 0.031034634 -0.96291208 0.13665965
-0.39876872 -0.13108899 0.63445365 0.90176499 0.18964666 -0.66222936 0.13665965
-0.24899167 -0.25778022 0.79425389 0.72744209 -0.038332906 -0.74137437 0.13665965
-0.05081892 -0.016143862 0.93972009 0.51510102 0.074868575 -1.0208005 0.13665965
-0.2587693 -0.16295972 0.78606313 0.72863126 0.057123803 -0.78479922 0.13665965
0.18379882 -0.25775951 1.063 0.3919135 -0.22816491 -1.0102782 0.13665965
-0.10806511 0.10472842 0.92703545 0.52981305 0.20229429 -1.0647733 0.13665965
-0.046901021 -0.19460309 0.94263524 0.53862888 -0.082427159 -0.92206603 0.13665965
-0.17782557 -0.17026451 0.85398901 0.64735603 0.003523906 -0.84636968 0.13665965
-0.079883017 -0.017216468 0.9245128 0.53778076 0.087914504 -1.0027245 0.13665965
-0.16190362 -0.31113315 0.8782208 0.64055985 -0.13764815 -0.78751987 0.13665965
0.21709849 0.20466295 1.0528497 0.28577757 0.13358824 -1.2928268 0.13665965
-0.3498829 -0.84405047 1.0070703 0.67159432 -0.63505888 -0.52153897 0.13665965
-0.37986088 -0.26135364 0.6365388 0.89829451 0.052178092 -0.60156715 0.13665965
0.016790697 -0.097101316 0.97084808 0.48022786 -0.024551973 -1.0114379 0.13665965
0.11778407 0.075209513 1.0149063 0.37948492 0.074734069 -1.1653485 0.13665965
0.17981072 0.21009961 1.0448942 0.30528319 0.15309048 -1.2811583 0.13665965
-0.27605778 0.21779479 0.86534137 0.63744813 0.38404629 -1.0350956 0.13665965
-0.29146907 -0.31451011 0.75325918 0.77869666 -0.067533411 -0.67304862 0.13665965
-0.19770488 0.24025081 0.91682464 0.55837303 0.35530397 -1.1059583 0.13665965
0.023597084 0.055218823 0.97919428 0.44558376 0.099537402 -1.1064786 0.13665965
-0.043262862 0.14479877 0.96390831 0.46891701 0.20208155 -1.1296089 0.13665965
0.53521734 -0.50007021 1.261869 0.24680099 -0.53001034 -1.0236913 0.13665965
-0.026443085 -0.027263075 0.95108551 0.49913734 0.054145083 -1.0281202 0.13665965
0.12005188 0.18550631 1.0263456 0.34816292 0.159729 -1.2385428 0.13665965
0.11730343 0.13408795 1.0196261 0.36453649 0.12125461 -1.2030694 0.13665965
-0.23722522 0.0066338456 0.82893705 0.67080849 0.19283141 -0.90999562 0.13665965
0.39100567 -0.069496967 1.0931845 0.2622962 -0.14467813 -1.1875812 0.13665965
-0.029960161 0.14216349 0.96890455 0.46007565 0.1936616 -1.1350944 0.13665965
0.03701077 0.23652977 1.0098919 0.38481402 0.23517776 -1.2347858 0.13665965
-0.27251101 -0.28940505 0.77215505 0.7554844 -0.054733817 -0.70379323 0.13665965
-0.23480548 0.046337847 0.83963418 0.65740621 0.22436613 -0.93905139 0.13665965
-0.34385571 -0.3443552 0.68945342 0.84831744 -0.060835015 -0.60194623 0.13665965
-0.18364003 0.23882093 0.92337656 0.54707652 0.34647414 -1.11387 0.13665965
0.15033944 0.10704939 1.0271368 0.35170639 0.086245731 -1.2003593 0.13665965
0.41155621 0.26050895 1.0903285 0.16807988 0.097793609 -1.401572 0.13665965
0.20362343 -0.26994619 1.0734322 0.38170359 -0.24546342 -1.0130661 0.13665965
-0.3095443 -0.20899706 0.73113453 0.79420787 0.047763415 -0.71049064 0.13665965
-0.34826088 -0.14848347 0.69434118 0.83419931 0.13235024 -0.70745027 0.13665965
-0.049777675 -0.10958254 0.93702507 0.53082979 -0.0056876517 -0.96631193 0.13665965
-0.24732661 -0.21063273 0.79483134 0.72197533 0.0056768665 -0.76780921 0.13665965
-0.23459759 -0.023193551 0.82496119 0.6758123 0.16602591 -0.89210957 0.13665965
-0.24230188 -0.041010216 0.81577128 0.68783271 0.15541333 -0.87432307 0.13665965
-0.34651941 -0.03869665 0.72273177 0.80410302 0.22718592 -0.78394485 0.13665965
-0.32583317 0.070525259 0.77667826 0.74422282 0.30223295 -0.88293374 0.13665965
0.14826922 -0.065780088 1.0239576 0.39011165 -0.052227221 -1.0945736 0.13665965
0.042876225 0.18187119 1.0022141 0.39821145 0.19088152 -1.1997603 0.13665965
-0.35777935 -0.10639314 0.69233215 0.83719885 0.17734116 -0.72531652 0.13665965
-0.3251451 -0.24144925 0.71122169 0.81786364 0.02792643 -0.67597806 0.13665965
-0.12266064 -0.28901497 0.90477198 0.60526687 -0.13529389 -0.82625598 0.13665965
-0.035732601 -0.1566959 0.94623905 0.52630246 -0.053509798 -0.94874918 0.13665965
-0.19212562 0.092853867 0.87843835 0.60400152 0.23757868 -1.0021844 0.13665965
0.1376964 -0.013029089 1.0188916 0.38679802 -0.0046000169 -1.1204062 0.13665965
0.32892409 0.1423675 1.0714993 0.24418046 0.04223036 -1.2944092 0.13665965
0.17659871 0.18318522 1.0410709 0.31520957 0.13406529 -1.2616661 0.13665965
0.095945194 -0.046661742 1.003909 0.41908041 -0.01528115 -1.0809816 0.13665965
-0.24044414 -0.020926129 0.8209368 0.68110031 0.17147608 -0.88902259 0.13665965
-0.04760088 0.076381363 0.95114005 0.49110216 0.14963301 -1.0813957 0.13665965
-0.36303318 -0.12550896 0.68158174 0.84900057 0.16456923 -0.70675218 0.13665965
-0.25236619 0.19794175 0.87267452 0.62295818 0.35474646 -1.0368284 0.13665965
-0.30689859 -0.21302854 0.73383117 0.79140383 0.042096622 -0.71082741 0.13665965
-0.1056654 -0.3002373 0.91897976 0.59090787 -0.15380928 -0.83289844 0.13665965
0.15692006 -0.015248878 1.0254296 0.37568849 -0.014136632 -1.1277875 0.13665965
0.039118256 -0.34294257 1.018235 0.48259926 -0.2526021 -0.90213597 0.13665965
-0.32821995 -0.24162388 0.7074753 0.82194728 0.030015882 -0.67260188 0.13665965
-0.30185163 -0.022962268 0.76970261 0.74684453 0.20891872 -0.83644843 0.13665965
-0.35042062 -0.037743997 0.71898961 0.80868715 0.23090401 -0.78079748 0.13665965
0.32000643 -0.13180909 1.0841877 0.30674958 -0.16991048 -1.1283655 0.13665965
0.26041692 -0.10314815 1.0634885 0.33295655 -0.12537263 -1.1212729 0.13665965
0.049257632 -0.26501232 1.0049702 0.47446099 -0.18559559 -0.94218653 0.13665965
0.058628201 0.23254175 1.0157598 0.37205938 0.2224008 -1.2424042 0.13665965
-0.21769404 -0.2743333 0.82511336 0.6947403 -0.072552875 -0.76022339 0.13665965
-0.27985838 -0.18843736 0.76394993 0.75590563 0.046998698 -0.75097525 0.13665965
0.11153749 -0.075606197 1.0107664 0.41421843 -0.045786589 -1.0718834 0.13665965
-0.37023023 -0.093824938 0.68106318 0.85066307 0.19820125 -0.72072601 0.13665965
-0.18864775 -0.26523903 0.84972483 0.66524118 -0.07964313 -0.78835946 0.13665965
-0.17009056 -0.12455466 0.8609103 0.63397509 0.040722098 -0.87805438 0.13665965
-0.33472994 -0.20505907 0.70226353 0.82612085 0.069742784 -0.68675166 0.13665965
0.12746891 -0.17153366 1.0252949 0.41744697 -0.13339886 -1.0274206 0.13665965
-0.29725784 -0.45163715 0.77568018 0.77556288 -0.20707485 -0.61105686 0.13665965
-0.11930224 0.1026882 0.92097849 0.53939033 0.20641139 -1.0564885 0.13665965
-0.2366052 0.048231315 0.83882815 0.6585995 0.22699627 -0.93901038 0.13665965
-0.3063257 -0.033766035 0.76298153 0.75487554 0.20277578 -0.82500863 0.13665965
0.12856288 -0.031504616 1.0158508 0.39593294 -0.016050948 -1.105304 0.13665965
-0.036155779 0.074791014 0.95606768 0.48307285 0.14289939 -1.086805 0.13665965
-0.11847441 -0.059683923 0.89904392 0.57758242 0.070831068 -0.95228446 0.13665965
-0.19454059 0.048147671 0.86696124 0.61911452 0.20253526 -0.96966165 0.13665965
0.24669752 -0.01140243 1.0526639 0.32395834 -0.045969557 -1.1680446 0.13665965
-0.13069302 0.19322759 0.93585408 0.52016866 0.28348491 -1.113071 0.13665965
0.21050483 -0.028247043 1.0428224 0.34723556 -0.045697782 -1.1433506 0.13665965
0.0019761673 0.17240576 0.98639292 0.42863318 0.20227498 -1.1726551 0.13665965
0.32104176 -0.15544428 1.0882573 0.30956632 -0.18952823 -1.1161768 0.13665965
-0.15645792 0.088983327 0.8983143 0.57409239 0.21490495 -1.0234615 0.13665965
0.16407406 -0.040203083 1.0283997 0.3761985 -0.03736819 -1.1163666 0.13665965
-0.13637699 0.22106786 0.9405691 0.51506811 0.30775782 -1.1298743 0.13665965
0.274555 -0.14976078 1.0738902 0.33227706 -0.16872382 -1.1017004 0.13665965
-0.26542321 -0.066494144 0.79228997 0.71781969 0.14768052 -0.83872664 0.13665965
0.15701009 -0.076969452 1.0276624 0.38676324 -0.064934909 -1.0921944 0.13665965
-0.21769267 -0.017063029 0.83859015 0.65774626 0.16125466 -0.90913999 0.13665965
0.18707067 -0.021405805 1.0353336 0.35924885 -0.03105765 -1.1373951 0.13665965
-0.31506792 -0.19783317 0.72580606 0.79966575 0.062186603 -0.7114237 0.13665965
0.18409 -0.42616805 1.1154932 0.3945556 -0.37552369 -0.93846738 0.13665965
0.25979596 -0.14518197 1.068701 0.3393704 -0.15972765 -1.0983486 0.13665965
-0.36729133 -0.59807765 0.74447387 0.83298975 -0.32835498 -0.49303761 0.13665965
-0.15548758 0.091435574 0.89937329 0.57255805 0.21636374 -1.0257806 0.13665965
0.035965037 0.055586513 0.98414463 0.43707696 0.094318226 -1.1131059 0.13665965
0.03474411 0.042513754 0.98260832 0.44097832 0.084259436 -1.1042362 0.13665965
-0.12274662 0.10436382 0.91954541 0.54168928 0.20953211 -1.0554981 0.13665965
-0.21025288 0.05335626 0.85791194 0.6321004 0.21575826 -0.96200544 0.13665965
0.2367398 -0.30595765 1.0951543 0.36597484 -0.28735629 -1.0102239 0.13665965
0.37180042 -0.14632182 1.1000394 0.28390616 -0.19939822 -1.1389178 0.13665965
0.057925362 0.0032939464 0.9895916 0.4340733 0.042060085 -1.0918416 0.13665965
0.048602384 0.071947224 0.99043107 0.42463365 0.10190806 -1.1299281 0.13665965
0.12177712 0.044785976 1.0146009 0.38421109 0.048757661 -1.1481467 0.13665965
-0.20933023 -0.21979202 0.82909745 0.6830309 -0.025138961 -0.7949087 0.13665965
-0.16675213 -0.15125836 0.86248827 0.63467258 0.014902944 -0.8652221 0.13665965
0.031872738 0.052071482 0.9822312 0.4406864 0.093291491 -1.1087763 0.13665965
-0.305125 0.10663838 0.80565292 0.70891029 0.31699213 -0.92749876 0.13665965
-0.21877763 0.056920074 0.85308439 0.639045 0.22361106 -0.95827693 0.13665965
-0.20296265 -0.130582 0.83585244 0.66607702 0.053430818 -0.84977347 0.13665965
-0.38046703 -0.08565186 0.67119557 0.86244273 0.21360067 -0.71537501 0.13665965
-0.49354234 -0.26022613 0.41396457 1.1234449 0.18269569 -0.42259163 0.13665965
-0.15596297 0.087040998 0.89818579 0.57423204 0.21307023 -1.0224535 0.13665965
-0.26028156 -0.074918397 0.79525125 0.71420276 0.13707893 -0.83761978 0.13665965
-0.27368155 -0.061001264 0.78617215 0.72545391 0.15772887 -0.83529073 0.13665965
-0.27907237 -0.30066568 0.7659539 0.76349854 -0.061728381 -0.69197267 0.13665965
0.28239921 -0.14245129 1.0751257 0.3272413 -0.16546409 -1.1085964 0.13665965
-0.41336289 -0.40992731 0.58110541 0.96052849 -0.069535688 -0.47821894 0.13665965
-0.34258223 0.030953908 0.74843967 0.77713627 0.28209773 -0.83840996 0.13665965
0.24822201 -0.16137244 1.0674975 0.34758395 -0.16905041 -1.0852253 0.13665965
-0.1164463 0.19903861 0.94385421 0.50697905 0.28058705 -1.1257786 0.13665965
-0.14348185 0.2145119 0.93550271 0.52304691 0.30649489 -1.1207751 0.13665965
0.032203946 0.2754637 1.0162569 0.37481076 0.26650301 -1.2601191 0.13665965
-0.20589732 0.17695569 0.8929159 0.58865172 0.31168568 -1.0532492 0.13665965
-0.058117304 0.17143987 0.96282411 0.47170731 0.2300819 -1.1397432 0.13665965
-0.23781863 -0.061883263 0.81583709 0.68800944 0.1346413 -0.86440915 0.13665965
0.081859119 0.11180159 1.0060692 0.39276189 0.11904647 -1.1719381 0.13665965
-0.23280083 -0.064800628 0.8193686 0.68356162 0.12908851 -0.86655211 0.13665965
-0.21850358 0.079244591 0.85863972 0.63216054 0.24162802 -0.97405356 0.13665965
0.07507553 -0.5083704 1.1004933 0.4498975 -0.41734549 -0.85987377 0.13665965
0.21004874 -0.55778068 1.1888937 0.37322193 -0.49810475 -0.90382349 0.13665965
0.027651444 -0.3215057 1.0063521 0.49036747 -0.22866215 -0.90506119 0.13665965
0.25282818 0.013303976 1.0535471 0.31552657 -0.028599562 -1.1851683 0.13665965
-0.42834586 -0.34671941 0.54706019 0.99075019 0.013794567 -0.48500794 0.13665965
0.1466995 -0.34462816 1.070714 0.41615537 -0.2915718 -0.9547413 0.13665965
-0.038296536 0.21218295 0.97912437 0.44432375 0.25188395 -1.1791508 0.13665965
-0.34318426 0.030772103 0.7478199 0.77790874 0.28238335 -0.83771998 0.13665965
0.072251216 -0.0016570467 0.99505377 0.42568037 0.031857375 -1.0960143 0.13665965
-0.23480755 0.11302953 0.85704541 0.63673729 0.27828729 -0.98633713 0.13665965
0.016301727 -0.16780545 0.97454852 0.48969677 -0.085818954 -0.97265565 0.13665965
-0.39640644 -0.34935692 0.60742086 0.93134487 -0.021472426 -0.53184146 0.13665965
-0.11672795 -0.062349282 0.89990872 0.57661831 0.067646325 -0.95182145 0.13665965
-0.08037439 -0.32876271 0.94246876 0.57003152 -0.19211145 -0.83722633 0.13665965
0.37654737 -0.07446976 1.0905391 0.27000502 -0.1435684 -1.1798806 0.13665965
0.17330351 0.25248215 1.048959 0.29567644 0.18750814 -1.3075167 0.13665965
-0.19278325 -0.31764677 0.85319871 0.67006695 -0.12830913 -0.76042819 0.13665965
-0.058739699 0.040760543 0.94131875 0.50837439 0.12594581 -1.0518875 0.13665965
-0.044561394 0.036517158 0.94760221 0.49873146 0.1156832 -1.0573652 0.13665965
-0.11972615 0.19998015 0.94260883 0.50922644 0.28299752 -1.1245108 0.13665965
0.11260582 -0.022074344 1.0099953 0.40400401 -0.0017917921 -1.1033738 0.13665965
-0.029302992 0.03310845 0.95434594 0.48826209 0.10569664 -1.0638533 0.13665965
-0.37764588 -0.41942224 0.64878386 0.89596522 -0.11337056 -0.52654099 0.13665965
0.38384879 -0.45063975 1.1971247 0.30140439 -0.45219204 -1.0019008 0.13665965
0.38871366 -0.52963978 1.237425 0.29875076 -0.51798886 -0.97392434 0.13665965
-0.11391439 0.10520612 0.92419976 0.53433907 0.20566329 -1.0615245 0.13665965
-0.19617915 -0.18601501 0.83952212 0.66675395 -0.0009483546 -0.82359129 0.13665965
-0.012410772 -0.10333773 0.95666009 0.50201166 -0.017145306 -0.99167699 0.13665965
-0.25601885 -0.47075513 0.83178967 0.72312713 -0.25159249 -0.64612734 0.13665965
0.2078243 -0.030759668 1.0421066 0.34922206 -0.046702433 -1.140762 0.13665965
0.044642735 0.11790095 0.99384004 0.415382 0.14023393 -1.1577376 0.13665965
0.041171309 -0.19960116 0.9903453 0.47561052 -0.12409768 -0.9697541 0.13665965
-0.099867664 -0.24411388 0.91447341 0.5843994 -0.10370697 -0.86329651 0.13665965
0.22529861 -0.25539237 1.0779388 0.36903793 -0.24033475 -1.0289731 0.13665965
-0.1774265 0.17378898 0.90748513 0.56515193 0.29340005 -1.0697464 0.13665965
-0.31295899 0.12939321 0.8077122 0.70877779 0.33997029 -0.93839848 0.13665965
0.16335629 0.086595841 1.029658 0.34917095 0.064817756 -1.1930304 0.13665965
-0.20671707 0.10052232 0.87142241 0.61477929 0.25198957 -0.99743897 0.13665965
-0.32493559 -0.096121028 0.73056984 0.79274166 0.16179265 -0.76544261 0.13665965
-0.09854953 0.14550395 0.93975717 0.51026487 0.22984451 -1.0985172 0.13665965
-0.10913896 -0.35741785 0.9290722 0.59286147 -0.2071718 -0.8058309 0.13665965
0.29290485 -0.24540105 1.0982947 0.33345741 -0.25441661 -1.0603204 0.13665965
-0.067495331 -0.36281735 0.95980132 0.55890262 -0.23003048 -0.83133966 0.13665965
0.052207921 -0.35267773 1.0279579 0.47387281 -0.26627395 -0.90504003 0.13665965
-0.32383218 -0.45482445 0.74140555 0.81000292 -0.19329318 -0.58078504 0.13665965
0.36350074 -0.037770342 1.0836607 0.26937777 -0.10991886 -1.1963042 0.13665965
-0.12527193 -0.0098927068 0.89982945 0.5730623 0.11681636 -0.97863472 0.13665965
-0.08728154 -0.11986596 0.91551602 0.5618366 0.0029117749 -0.93727475 0.13665965
-0.13632786 0.22181445 0.940795 0.51476544 0.30829981 -1.1304508 0.13665965
-0.27601039 0.094410419 0.82337171 0.68311673 0.28857166 -0.94169664 0.13665965
-0.29663303 0.2175653 0.8522895 0.65738738 0.39662886 -1.019725 0.13665965
-0.37924448 -0.27283755 0.636576 0.89857256 0.040395986 -0.59575427 0.13665965
-0.3495394 -0.49532214 0.71848673 0.83864254 -0.22051011 -0.53750288 0.13665965
-0.084210768 -0.079589374 0.91815692 0.55306244 0.036660802 -0.96243221 0.13665965
0.12556058 -0.11917525 1.0189617 0.41212493 -0.088029683 -1.0543375 0.13665965
0.062693216 0.0029730436 0.99146646 0.43098933 0.039746583 -1.0940468 0.13665965
-0.21963157 0.1115775 0.86628854 0.62308431 0.26825014 -0.99619627 0.13665965
0.12384646 -0.16926008 1.0235276 0.41941047 -0.13006581 -1.0268874 0.13665965
0.25216267 -0.41095078 1.1363423 0.36022392 -0.38233343 -0.97188783 0.13665965
-0.40980601 -0.27479276 0.58728492 0.94943708 0.066767961 -0.55386347 0.13665965
0.34309715 -0.3624807 1.1489795 0.31692609 -0.36784419 -1.0248413 0.13665965
-0.1548278 0.1506435 0.91329038 0.55385232 0.26311532 -1.0676161 0.13665965
-0.10369834 -0.19441284 0.90736926 0.58405942 -0.056117803 -0.88594031 0.13665965
-0.27423048 0.092822082 0.82417685 0.68185312 0.2861844 -0.94192636 0.13665965
0.20582771 -0.32108083 1.087952 0.38287935 -0.29036415 -0.99078977 0.13665965
-0.37994358 -0.44128785 0.65005499 0.89700103 -0.13557856 -0.51503867 0.13665965
-0.062261261 0.19474067 0.96600592 0.46735463 0.2501263 -1.1537695 0.13665965
-0.24838135 -0.14623629 0.79679972 0.71486747 0.065991253 -0.80362767 0.13665965
-0.42712387 -0.14095475 0.59045589 0.94956636 0.20743382 -0.61958539 0.13665965
-0.48899382 -0.11997517 0.49318966 1.0558257 0.29318285 -0.54642588 0.13665965
-0.39555934 -0.27427223 0.61102229 0.92506528 0.053660169 -0.57371467 0.13665965
-0.37853727 -0.36035371 0.63837504 0.90119284 -0.049182724 -0.55101937 0.13665965
0.081820264 -0.24411084 1.0167665 0.45211986 -0.17936504 -0.96892661 0.13665965
0.16501142 -0.2780104 1.060262 0.4037104 -0.23922583 -0.99252009 0.13665965
-0.35968143 -0.39152476 0.67251843 0.869865 -0.098039553 -0.56155032 0.13665965
-0.22435717 -0.11600274 0.81990373 0.68494654 0.078859597 -0.84155816 0.13665965
-0.26418898 -0.13356586 0.7837503 0.72989714 0.087343544 -0.7975983 0.13665965
0.049403828 -0.09716583 0.98584354 0.45785621 -0.038490314 -1.0287675 0.13665965
-0.22279456 -0.21351808 0.81721389 0.69624364 -0.011564013 -0.78717536 0.13665965
0.37981147 -0.47400454 1.2067132 0.30306837 -0.47032046 -0.99163878 0.13665965
0.28759962 -0.17441672 1.0818874 0.32872897 -0.19362032 -1.0938274 0.13665965
0.22582375 -0.3322264 1.0989137 0.3726483 -0.30643824 -0.99417353 0.13665965
-0.43852901 -0.39704239 0.52580732 1.0127071 -0.027773753 -0.44213241 0.13665965
-0.26995057 -0.19389899 0.77351427 0.7452454 0.035490673 -0.75695449 0.13665965
-0.21487035 -0.051842876 0.83503407 0.66300774 0.12977894 -0.88879251 0.13665965
0.10661757 0.060372721 1.0102845 0.38999856 0.0676056 -1.1508 0.13665965
-0.33668858 -0.18891506 0.70174468 0.82626361 0.086350299 -0.6943751 0.13665965
-0.36063495 -0.33278254 0.66422725 0.8731544 -0.035631292 -0.58726233 0.13665965
0.017535383 0.06124521 0.97730917 0.44829667 0.10714058 -1.1071455 0.13665965
-0.22927529 -0.10912657 0.81657153 0.68872344 0.087908395 -0.84176737 0.13665965
-0.40491635 -0.35681558 0.59247136 0.94650793 -0.021082899 -0.51585501 0.13665965
-0.24564795 -0.25485566 0.79736716 0.72360593 -0.037517011 -0.74584705 0.13665965
-0.22824331 0.15974659 0.87482113 0.61473781 0.31116194 -1.0251877 0.13665965
-0.46996 -0.29162401 0.46268824 1.0738477 0.1197046 -0.44598612 0.13665965
-0.13247412 0.12930205 0.91979438 0.54216951 0.23446718 -1.0666608 0.13665965
-0.48136178 -0.43024284 0.410133 1.1212718 -0.0038192917 -0.33758235 0.13665965
-0.23112215 -0.35897368 0.82504994 0.70825028 -0.14887811 -0.71008182 0.13665965
-0.4806231 -0.42237765 0.41255978 1.1190315 0.0035310269 -0.34341273 0.13665965
-0.37515688 -0.2696383 0.64289731 0.89188415 0.040002763 -0.6027022 0.13665965
-0.19985476 -0.33201495 0.84942889 0.67685866 -0.13876888 -0.74828869 0.13665965
-0.03614689 -0.22644223 0.95236135 0.53289711 -0.11595574 -0.91247994 0.13665965
-0.36331269 -0.2550838 0.6609115 0.8724618 0.044273365 -0.62541229 0.13665965
-0.033421941 0.16923077 0.9723742 0.45446235 0.21646188 -1.1517551 0.13665965
-0.29236332 -0.29031751 0.75026518 0.77933288 -0.042784635 -0.68395758 0.13665965
0.55528277 -0.17777283 1.1455402 0.21030332 -0.28398749 -1.1777978 0.13665965
-0.38701773 -0.34920442 0.623514 0.91530633 -0.029983742 -0.54495877 0.13665965
-0.30948809 -0.35056677 0.73593086 0.80107325 -0.092139333 -0.6376673 0.13665965
-0.085196204 0.14451848 0.94567686 0.50027847 0.22237019 -1.1056664 0.13665965
0.29148725 -0.24269585 1.0972034 0.33392584 -0.25168952 -1.0610977 0.13665965
-0.21112692 -0.026332719 0.84174299 0.65363669 0.14954515 -0.90803975 0.13665965
-0.15155128 0.061481442 0.89561576 0.57763237 0.18992731 -1.0079921 0.13665965
-0.24339379 -0.11872766 0.80374885 0.70501053 0.087804206 -0.82435125 0.13665965
0.0025992135 -0.022604056 0.96497059 0.47724271 0.044869304 -1.047124 0.13665965
-0.34870386 -0.32587004 0.68109512 0.85535264 -0.038077194 -0.60509968 0.13665965
-0.34004122 -0.49354976 0.73229516 0.82513702 -0.22525974 -0.54968041 0.13665965
-0.48315775 -0.44208789 0.4043749 1.1265818 -0.01382907 -0.3272337 0.13665965
-0.062644094 -0.3654471 0.9637813 0.55502105 -0.23452748 -0.83337325 0.13665965
-0.21309398 -0.27729374 0.82958913 0.69009632 -0.077987701 -0.76263082 0.13665965
-0.3900032 0.077702194 0.72095329 0.81742197 0.3547805 -0.82948232 0.13665965
-0.36977845 -0.40874755 0.65968257 0.88425797 -0.10836182 -0.5413698 0.13665965
-0.39992955 -0.31980699 0.60103959 0.93645072 0.012290499 -0.5422048 0.13665965
-0.23866512 0.13650046 0.86140168 0.63246059 0.29911575 -1.0006493 0.13665965
-0.38822579 -0.40334523 0.62737048 0.91534024 -0.086503223 -0.51846015 0.13665965
0.31976038 -0.082623333 1.0776591 0.29907492 -0.13004653 -1.1552136 0.13665965
-0.19651271 -0.37477586 0.8617695 0.67163742 -0.18318895 -0.73305875 0.13665965
-0.4511171 -0.43667608 0.49908346 1.0393308 -0.055849195 -0.40059784 0.13665965
-0.37581205 -0.39035937 0.64650357 0.89549369 -0.083406202 -0.54107308 0.13665965
-0.45133191 -0.26790258 0.5102874 1.027462 0.11840722 -0.49484086 0.13665965
-0.27512634 0.12185442 0.83262414 0.67276251 0.30976754 -0.96266156 0.13665965
0.13091382 -1.1522392 1.6844573 0.27628368 -0.9433406 -0.79873174 0.13665965
-0.043688901 -0.20794654 0.94580805 0.53728521 -0.095896102 -0.9171927 0.13665965
0.050783426 -0.32392046 1.01923 0.47492146 -0.23948288 -0.91646546 0.13665965
0.27430865 -0.42108124 1.1484643 0.34951043 -0.39739725 -0.97625899 0.13665965
-0.51684588 -0.33609608 0.30312586 1.2237974 0.15926141 -0.30461103 0.13665965
-0.24472475 -0.1178611 0.80270237 0.70625305 0.089392222 -0.82376981 0.13665965
-0.13535386 0.058293816 0.90417594 0.56483966 0.17876135 -1.0164055 0.13665965
-0.28423321 -0.18547562 0.75972259 0.76059467 0.052635077 -0.74861419 0.13665965
-0.334167 -0.19311707 0.7042352 0.82359397 0.080534182 -0.69449866 0.13665965
-0.46727189 -0.45161259 0.45620343 1.0794097 -0.050250452 -0.36048201 0.13665965
-0.48133019 -0.42920455 0.41022775 1.1211823 -0.0027330169 -0.33818638 0.13665965
0.10514007 -0.76219505 1.2795826 0.38954112 -0.65357864 -0.81362891 0.13665965
-0.26828498 -0.071002387 0.78903526 0.72191042 0.14556481 -0.83337402 0.13665965
0.32715303 -0.35246119 1.1404586 0.32377082 -0.35477272 -1.0236627 0.13665965
-0.47414118 -0.47671741 0.43899322 1.0958359 -0.068658352 -0.33434775 0.13665965
0.43561646 -0.1630896 1.1182905 0.25743309 -0.23404129 -1.1509269 0.13665965
-0.28896922 -0.28222868 0.75363129 0.77488458 -0.037030336 -0.69139504 0.13665965
0.14155178 -0.81684166 1.3418016 0.36112109 -0.70556664 -0.81959319 0.13665965
-0.0022179303 -0.18845466 0.9669295 0.50490546 -0.096287467 -0.95153683 0.13665965
-0.3463757 -0.1654321 0.69359243 0.83505231 0.11544313 -0.69862473 0.13665965
-0.38626602 -0.20587742 0.63451475 0.89985991 0.11073893 -0.62731612 0.13665965
-0.37329656 -0.3459135 0.64566505 0.89288461 -0.03862644 -0.56482112 0.13665965
-0.49119568 -0.47473821 0.37737313 1.1511935 -0.036034957 -0.29059273 0.13665965
-0.3748337 -0.21470469 0.64924115 0.8840605 0.092583865 -0.63566327 0.13665965
-0.42232916 -0.37795189 0.55974537 0.97941089 -0.025550626 -0.47867793 0.13665965
-0.43214914 -0.41185892 0.54156721 0.99834633 -0.051359769 -0.4464027 0.13665965
-0.39733294 -0.31211895 0.60569113 0.93149716 0.017622322 -0.54998326 0.13665965
0.31830823 -0.10317423 1.0797478 0.30319974 -0.14610176 -1.143298 0.13665965
-0.069765493 0.041272603 0.93599379 0.51666516 0.13170335 -1.0457426 0.13665965
0.081848048 -0.24577419 1.0170889 0.45220268 -0.1808489 -0.96814352 0.13665965
-0.47217792 -0.50815576 0.45391282 1.0837263 -0.10950752 -0.32813492 0.13665965
0.26872909 -0.10498363 1.0661478 0.32885948 -0.1298814 -1.1235307 0.13665965
-0.2024643 -0.4146384 0.86736536 0.6741721 -0.22066081 -0.71281159 0.13665965
0.062989362 -0.5463891 1.113439 0.45236695 -0.44905078 -0.84239614 0.13665965
-0.47590598 -0.36639276 0.43142027 1.1018974 0.054885034 -0.38572735 0.13665965
-0.035747863 -0.0060804314 0.94791096 0.50169986 0.076226294 -1.0357261 0.13665965
0.12207331 -0.49960372 1.1197982 0.42379919 -0.42299598 -0.88505757 0.13665965
-0.40981546 -0.49421251 0.60998201 0.94059342 -0.1688237 -0.45298949 0.13665965
-0.40049323 -0.4280445 0.60949653 0.93466449 -0.10225113 -0.49048105 0.13665965
0.23264816 -0.53485966 1.1856936 0.36450985 -0.48392633 -0.91975176 0.13665965
-0.30167592 -0.047075111 0.76408064 0.75311679 0.18823169 -0.82007444 0.13665965
-0.039123561 -0.22374478 0.95028174 0.53496784 -0.11221645 -0.91202253 0.13665965
-0.061040677 -0.76373887 1.1882153 0.47730044 -0.62348807 -0.73413724 0.13665965
-0.38066572 -0.34891033 0.63401967 0.90478009 -0.03534792 -0.55367166 0.13665965
-0.40165666 -0.36456668 0.59882981 0.9406361 -0.032406066 -0.51681483 0.13665965
0.18400957 -0.39111617 1.1021057 0.39534113 -0.34461409 -0.95210159 0.13665965
0.36521551 -0.77527905 1.3920497 0.2890349 -0.7067889 -0.89588839 0.13665965
0.10009447 -0.3165983 1.0416276 0.44349259 -0.250631 -0.94475937 0.13665965
