# .PCD v0.7 - Point Cloud Data file format
VERSION 0.7
FIELDS x y z normal_x normal_y normal_z curvature
SIZE 4 4 4 4 4 4 4
TYPE F F F F F F F
COUNT 1 1 1 1 1 1 1
WIDTH 141
HEIGHT 1
VIEWPOINT 0 0 0 1 0 0 0
POINTS 141
DATA ascii
-0.62695622 -0.71404302 0.16882464 -0.82398462 0.23248568 0.51672018 0.11665881
-1.3986677 -1.1913589 -0.25770998 0.00024446519 0.21311429 0.97702724 0.11665881
-0.66420686 -1.1529132 0.20889422 -0.96161979 0.14435241 0.23334481 0.11665881
-0.85738498 -0.64262915 -0.050166894 -0.47377518 0.037680309 0.87983936 0.11665881
-0.72779399 -0.67918205 0.041768849 -0.65118921 0.12941203 0.74780023 0.11665881
-1.1188967 -1.1970812 -0.22536828 -0.24152617 0.090921938 0.96612543 0.11665881
-0.57504916 -0.48192269 0.06278725 -0.46427327 0.62103611 0.63147801 0.11665881
-1.0680349 -1.1101035 -0.21206945 -0.32331663 -0.043503452 0.94529033 0.11665881
-0.97391444 -1.1846216 -0.17450224 -0.43334675 0.034363504 0.90057188 0.11665881
-1.0681458 -1.2272649 -0.2078733 -0.29303026 0.12401481 0.94802618 0.11665881
-0.56186593 -0.63973278 0.23043548 -0.80281061 0.42279822 0.4204008 0.11665881
-0.55538005 -0.63458186 0.23763603 -0.80076158 0.43887812 0.40763572 0.11665881
-0.61094439 -0.84838176 0.26719335 -0.94149649 0.16280954 0.29508886 0.11665881
-0.84568757 -1.0757582 -0.088643417 -0.63169175 -0.072026148 0.77186644 0.11665881
-0.64259052 -1.1557502 0.43683311 -0.97423691 0.2244433 -0.02208212 0.11665881
-0.86277831 -0.67384577 -0.052536882 -0.48931417 -0.0032756275 0.87210143 0.11665881
-0.85807258 -0.64451498 -0.050459851 -0.47447774 0.034745738 0.87958151 0.11665881
-0.6546852 -0.84107476 0.15998439 -0.8784377 0.088578865 0.46957529 0.11665881
-0.73079157 -1.1286398 0.040240105 -0.85092068 0.03922496 0.52382761 0.11665881
-1.3549795 -0.38249356 -0.20651805 -0.16018285 0.12225405 0.9794873 0.11665881
-0.98100084 -0.94786131 -0.15493751 -0.43358031 -0.16149856 0.88652486 0.11665881
-0.68779105 -1.3009474 0.26841974 -0.94567424 0.30581182 0.11036002 0.11665881
-0.96606416 -1.1740571 -0.17096682 -0.44607788 0.018477404 0.8948034 0.11665881
-1.2824283 -0.80107272 -0.22751965 -0.21998042 -0.17600885 0.95949441 0.11665881
-0.8413009 -0.25454938 -0.20662743 -0.022232387 0.65809816 0.75260383 0.11665881
-0.85978192 -0.64939213 -0.051212013 -0.47628286 0.027315915 0.87886775 0.11665881
-0.85738498 -0.64262915 -0.050166894 -0.47377518 0.037680309 0.87983936 0.11665881
-0.88118666 -0.40669307 -0.11311235 -0.21295987 0.39502707 0.89364517 0.11665881
-0.7759881 -0.38748318 -0.09779714 -0.20551729 0.52989489 0.82278436 0.11665881
-1.1595986 -1.0101285 -0.23112579 -0.25782508 -0.11458018 0.95937353 0.11665881
-0.94468224 -0.67067087 -0.093756489 -0.41306305 -0.057296082 0.90889829 0.11665881
-0.74726403 -1.1226873 0.014839184 -0.81919634 0.019850364 0.57316953 0.11665881
-1.0473555 -1.1896392 -0.2045809 -0.33027089 0.056648001 0.94218475 0.11665881
-1.0221082 -1.227048 -0.19200563 -0.35583401 0.11082033 0.92795527 0.11665881
-1.0612732 -1.1973954 -0.20876911 -0.31044447 0.072551258 0.94781882 0.11665881
-0.75322145 -0.65902078 0.017791472 -0.59977901 0.12392772 0.79051065 0.11665881
-0.72831452 -0.97870052 0.045590479 -0.81112242 -0.034025479 0.58388591 0.11665881
-0.68319529 -0.73786509 0.098180614 -0.76641852 0.12298739 0.63045752 0.11665881
-0.57014883 -0.57103628 0.15213569 -0.66950774 0.50515705 0.54458767 0.11665881
-0.62852442 -1.0856862 0.39060256 -0.98231024 0.1824574 0.042141639 0.11665881
-0.52468312 -0.61881399 0.28436735 -0.80056131 0.50129592 0.32833517 0.11665881
-0.70945859 -0.96980524 0.07367754 -0.84108835 -0.01405656 0.54071504 0.11665881
-0.84347463 -0.61861753 -0.044339746 -0.46794796 0.081784762 0.87996364 0.11665881
-0.88711041 -0.68212926 -0.066003963 -0.4700413 -0.030676823 0.88211119 0.11665881
-0.90241158 -0.68791109 -0.074285932 -0.45839122 -0.047078203 0.88750273 0.11665881
-0.47604468 -0.56949645 0.31759897 -0.73996168 0.61916071 0.26286262 0.11665881
-0.53343773 -0.56660473 0.19735149 -0.69124031 0.55970365 0.45707616 0.11665881
-1.1654176 -1.0167035 -0.2334304 -0.25146684 -0.10801867 0.96181929 0.11665881
-1.0496218 -1.0471195 -0.20020041 -0.35416919 -0.10743867 0.92898929 0.11665881
-1.0812069 -1.0835118 -0.21492268 -0.31452084 -0.068850532 0.94675034 0.11665881
-0.78608334 -0.68789178 -0.0033986131 -0.58453643 0.051839378 0.80970973 0.11665881
-2.0067472 -0.96077794 -0.26493344 0.11154848 0.30646566 0.94532311 0.11665881
-0.85146523 -1.1534654 -0.097352989 -0.6339919 -0.0013038953 0.77333856 0.11665881
-0.75336862 -1.0503666 0.0077170487 -0.78777391 -0.034613058 0.61499119 0.11665881
-0.61673504 -0.279156 -0.17090707 -0.045242015 0.77290845 0.63290256 0.11665881
-0.69779056 -0.36635274 -0.094121262 -0.18310925 0.6333617 0.75188029 0.11665881
-1.3116488 -0.29692799 -0.21853693 -0.1135334 0.29393476 0.94905877 0.11665881
-0.88024992 -0.67881805 -0.062225033 -0.47489485 -0.022216275 0.87976205 0.11665881
-1.1316259 -0.79030132 -0.18417619 -0.30283174 -0.18074448 0.93574804 0.11665881
-0.9056316 -0.39028245 -0.12588048 -0.18825933 0.40105954 0.89649856 0.11665881
-0.63932699 -1.1181128 0.32221076 -0.9800787 0.17008577 0.10255027 0.11665881
-0.82612199 -0.46728939 -0.071965329 -0.30989742 0.34462935 0.88611186 0.11665881
-0.6135993 -0.55667704 0.094207719 -0.60147417 0.46567398 0.64913529 0.11665881
-0.87623936 -0.54878306 -0.068875313 -0.37923229 0.15412953 0.91237438 0.11665881
-0.81620204 -1.1123861 -0.06516967 -0.68978548 -0.031168809 0.7233426 0.11665881
-0.55560738 -0.57170117 0.17148048 -0.68362898 0.52392125 0.5080924 0.11665881
-0.5773983 -0.71957421 0.27188396 -0.88816494 0.30872479 0.34037042 0.11665881
-0.67016363 -0.33360213 -0.11798629 -0.13012516 0.692734 0.70935678 0.11665881
-1.0422246 -0.3691889 -0.15935564 -0.15241438 0.32456911 0.93350136 0.11665881
-0.82020992 -0.48677602 -0.06252493 -0.33905622 0.31706202 0.88572711 0.11665881
-0.82730281 -0.69195145 -0.031251896 -0.53870356 0.0074669155 0.8424623 0.11665881
-1.14491 -0.98035562 -0.22306621 -0.27612758 -0.13814525 0.95114112 0.11665881
-0.66228956 -0.73732251 0.12495226 -0.79670924 0.15377252 0.58447278 0.11665881
-0.61601943 -1.0268295 0.44046292 -0.98183072 0.18915868 0.015079695 0.11665881
-1.0731083 -1.23982 -0.20758186 -0.28264865 0.14768405 0.94778645 0.11665881
-0.77702796 -0.64012074 -0.002084766 -0.55403942 0.12152942 0.82357204 0.11665881
-0.97814065 -0.38628292 -0.14195018 -0.17449594 0.34454378 0.92241031 0.11665881
-0.58513522 -0.88035548 0.4575977 -0.97171777 0.23101079 0.048975624 0.11665881
-0.87195808 -0.56663936 -0.064256005 -0.39909729 0.13027139 0.90760714 0.11665881
-0.88937819 -0.40076017 -0.11765154 -0.20389545 0.39768526 0.89457983 0.11665881
-1.0076305 -1.1949142 -0.1890898 -0.38290226 0.055371206 0.9221279 0.11665881
-1.0505247 -1.1941614 -0.20539191 -0.32505926 0.064465918 0.94349384 0.11665881
-0.74090362 -0.67487073 0.029978786 -0.6301471 0.11851872 0.76737732 0.11665881
-0.69160658 -0.68666828 0.077550739 -0.70710999 0.16804031 0.68684638 0.11665881
-0.6540547 -0.61139017 0.088315874 -0.65780926 0.32493296 0.67948914 0.11665881
-0.73765075 -0.66423452 0.030872418 -0.62400967 0.13605024 0.76948178 0.11665881
-0.81378454 -1.1365259 -0.063486494 -0.69926667 -0.0071682762 0.71482497 0.11665881
-0.90991735 -0.59824884 -0.07775268 -0.39795315 0.051163267 0.91597795 0.11665881
-0.66494256 -0.59481841 0.070446163 -0.61996043 0.33425757 0.70987391 0.11665881
-0.56595856 -0.60792643 0.19243509 -0.74510872 0.45919803 0.48368388 0.11665881
-1.4286348 -1.808905 1.0579114 -0.24783979 0.9649688 -0.08608494 0.11665881
-0.71388632 -1.1158105 0.068340763 -0.87724078 0.045093223 0.47792807 0.11665881
-0.55197692 -0.66902226 0.28452525 -0.85399455 0.40231979 0.32989708 0.11665881
-0.52796018 -0.67479181 0.37254572 -0.87851769 0.43297556 0.20183857 0.11665881
-0.75774831 -0.65155578 0.013227158 -0.58712929 0.1284091 0.79924357 0.11665881
-0.60783923 -0.97081482 0.39482844 -0.98120308 0.17552871 0.080188587 0.11665881
-1.1249158 -0.35223043 -0.17758861 -0.1360063 0.2967543 0.9452191 0.11665881
-0.89303309 -0.23410143 -0.22524638 -0.0049788514 0.65161681 0.75853199 0.11665881
-1.1400239 -0.32588676 -0.18847284 -0.11527213 0.33616617 0.93472171 0.11665881
-0.6044845 -0.68588096 0.19076258 -0.82083613 0.30004975 0.4860023 0.11665881
-1.0261518 -0.9154433 -0.16950426 -0.3865976 -0.1727934 0.90591651 0.11665881
-1.2849747 -0.83280087 -0.23384069 -0.21375269 -0.17123048 0.96176398 0.11665881
-0.89458597 -0.70660931 -0.071275517 -0.47492278 -0.059057247 0.87804359 0.11665881
-1.0392241 -1.1402018 -0.20268577 -0.35118568 -0.014136168 0.93619913 0.11665881
-1.0000737 -0.98080814 -0.16977873 -0.4127596 -0.15107451 0.89822382 0.11665881
-0.86277831 -0.67384577 -0.052536882 -0.48931417 -0.0032756275 0.87210143 0.11665881
-0.56063282 -0.71147865 0.31149584 -0.89535457 0.34499595 0.28163451 0.11665881
-0.8752898 -1.1345282 -0.11544698 -0.59014946 -0.027456028 0.80682701 0.11665881
-0.91506749 -1.1320227 -0.14209519 -0.52516538 -0.034896348 0.8502844 0.11665881
-0.58419067 -0.51486915 0.086599924 -0.53525662 0.56596398 0.62704474 0.11665881
-0.61639631 -0.85671139 0.25453773 -0.93903112 0.14905053 0.30984583 0.11665881
-0.56988668 -0.74906558 0.32516554 -0.92090279 0.29776144 0.25154749 0.11665881
-0.84726393 -1.0884557 -0.091042995 -0.63114214 -0.063008592 0.77310383 0.11665881
-0.6877771 -1.2186103 0.16251314 -0.94273955 0.18329328 0.27864993 0.11665881
-0.65023232 -1.1067792 0.24157061 -0.96952969 0.13119368 0.20688272 0.11665881
-0.65779996 -0.89934206 0.16344519 -0.90042871 0.0629256 0.43042827 0.11665881
-1.1430166 -0.32788721 -0.18813175 -0.11704836 0.33044621 0.93653882 0.11665881
-0.94279373 -1.1001818 -0.15637477 -0.48310134 -0.068459652 0.87288392 0.11665881
-0.85738498 -0.64262915 -0.050166894 -0.47377518 0.037680309 0.87983936 0.11665881
-0.86227638 -0.63504171 -0.053111605 -0.46372187 0.042912699 0.88494098 0.11665881
-0.85827744 -0.38976559 -0.11588383 -0.19482951 0.44622165 0.87345731 0.11665881
-0.87399751 -0.40073663 -0.11411874 -0.20664892 0.41233307 0.88728666 0.11665881
-1.1045964 -1.1684198 -0.22356153 -0.26716727 0.042188045 0.96272624 0.11665881
-0.58511996 -0.5791257 0.14120844 -0.67218184 0.47270036 0.56984729 0.11665881
-0.58258355 -0.56127679 0.12901039 -0.63825887 0.50205404 0.58358145 0.11665881
-0.67240387 -0.40339422 -0.056022946 -0.2555638 0.61202019 0.74841058 0.11665881
-0.73911148 -0.69546211 0.034388293 -0.65097255 0.095928714 0.75301558 0.11665881
-0.68262327 -1.2012458 0.16909443 -0.94680196 0.1682786 0.27431425 0.11665881
-0.61889905 -0.52185857 0.06419345 -0.52549505 0.5104571 0.68065298 0.11665881
-0.8677265 -0.40369526 -0.11126149 -0.2117068 0.41321474 0.8856827 0.11665881
-0.82615215 -0.71556634 -0.030617708 -0.55447549 -0.015306443 0.83205926 0.11665881
-0.80790317 -0.41994607 -0.087568313 -0.24816819 0.44549707 0.86020052 0.11665881
-0.8681435 -0.66087699 -0.055518776 -0.4759019 0.0068196873 0.87947196 0.11665881
-0.5538069 -0.59855944 0.20209983 -0.73899651 0.48909503 0.4633252 0.11665881
-0.63607985 -0.97536755 0.23855326 -0.95695978 0.099293165 0.27270651 0.11665881
-0.83415693 -0.63042957 -0.038204081 -0.48645842 0.074788734 0.87049687 0.11665881
-0.64137793 -0.72657466 0.15155607 -0.81677097 0.19655043 0.54245108 0.11665881
-0.78741634 -0.64642769 -0.0081610447 -0.54847705 0.10152182 0.82997966 0.11665881
-0.89202875 -0.32838404 -0.15619528 -0.11268036 0.51764596 0.84814256 0.11665881
-0.84306026 -0.39254963 -0.11097842 -0.20116562 0.45613015 0.86687809 0.11665881
-1.2003673 -0.95481139 -0.23424879 -0.23953116 -0.14149481 0.96052277 0.11665881
