# .PCD v0.7 - Point Cloud Data file format
VERSION 0.7
FIELDS x y z normal_x normal_y normal_z curvature
SIZE 4 4 4 4 4 4 4
TYPE F F F F F F F
COUNT 1 1 1 1 1 1 1
WIDTH 215
HEIGHT 1
VIEWPOINT 0 0 0 1 0 0 0
POINTS 215
DATA ascii
-0.32454422 -0.19796544 0.549564 0.42214265 -0.36560491 -0.82953519 0.090134636
-0.16993532 -0.71602803 0.92566699 0.25529116 -0.58606678 -0.76899427 0.090134636
-0.13086672 -0.22322805 0.66713971 0.50753635 -0.29530296 -0.8094461 0.090134636
-0.57397985 -0.25257793 0.47002757 0.29132858 -0.62347472 -0.72553909 0.090134636
-0.21696603 -0.074531376 0.56647187 0.50714135 -0.2330111 -0.82976711 0.090134636
-0.2763156 -0.17549348 0.56562543 0.45125604 -0.32276237 -0.83198106 0.090134636
-0.29744673 -0.1523539 0.54520494 0.4565196 -0.31669834 -0.83143973 0.090134636
-0.31913403 -0.16155076 0.53703028 0.44596758 -0.33483738 -0.83005834 0.090134636
-0.35333607 -0.24732624 0.5591619 0.3753452 -0.42310241 -0.82468194 0.090134636
-0.52815086 -0.53458196 0.75589752 -0.15130331 -0.73630428 -0.65951753 0.090134636
0.018584382 -0.1866221 0.76286626 0.62358481 -0.24936695 -0.74091709 0.090134636
-0.34718642 -0.1571369 0.52017927 0.44245368 -0.34735146 -0.82678998 0.090134636
-0.11248446 -0.17963065 0.66380328 0.52821165 -0.26572725 -0.80646235 0.090134636
-0.19954847 0.064888783 0.54550934 0.53974867 -0.14979443 -0.82839185 0.090134636
-0.37819323 -0.64012766 0.83863288 -0.058179535 -0.67825669 -0.73251826 0.090134636
-0.32703212 -0.17992283 0.54046357 0.43283099 -0.35324055 -0.82938439 0.090134636
-0.14953399 -0.14096321 0.62769598 0.5155046 -0.25331405 -0.81858844 0.090134636
-0.28572121 0.019554073 0.49948904 0.52632523 -0.19555734 -0.82748961 0.090134636
-0.50187659 -0.11172498 0.41149741 0.48070237 -0.41116154 -0.77451366 0.090134636
-0.44272214 -0.20774046 0.49655139 0.38230878 -0.45723489 -0.80297959 0.090134636
-0.15677717 -0.9927296 1.1592306 0.15589954 -0.65213889 -0.74189633 0.090134636
0.33869326 -2.0602601 3.6098144 0.98236889 0.18545514 -0.023617571 0.090134636
0.22098286 -0.52550536 1.2262123 0.89002621 -0.30327922 -0.34040427 0.090134636
-0.34323218 -0.29714945 0.59009945 0.33939159 -0.4551242 -0.82321036 0.090134636
-0.57087684 -0.056978993 0.33383903 0.56395936 -0.40155175 -0.72159964 0.090134636
-0.54733139 -0.28555334 0.50788659 0.24405305 -0.62716794 -0.73966104 0.090134636
-0.66566914 -0.30954915 0.49974513 0.1319003 -0.7700569 -0.62419122 0.090134636
-0.31554312 -0.58033407 0.78919464 0.10280511 -0.6177544 -0.77962214 0.090134636
-0.42669305 -0.20681515 0.50368232 0.38668799 -0.44360018 -0.80851179 0.090134636
-0.57840228 -0.65391994 0.92465436 -0.37419689 -0.74047691 -0.55827469 0.090134636
-0.11972684 -0.14239094 0.64725906 0.53048337 -0.24695277 -0.81092644 0.090134636
0.18499598 -0.98182333 1.6005933 0.93276566 -0.27475032 -0.2333678 0.090134636
-0.57325381 -0.31817895 0.52987301 0.17109382 -0.68137997 -0.71165174 0.090134636
0.011343135 -0.20650397 0.76361656 0.61771029 -0.25880057 -0.74260104 0.090134636
-0.46605465 -0.2669616 0.52314574 0.3072252 -0.53124124 -0.78955394 0.090134636
-0.14226483 -0.13475804 0.63039774 0.52033377 -0.24794808 -0.81717473 0.090134636
-0.2246674 -0.040321711 0.55250728 0.51469159 -0.21456739 -0.83009243 0.090134636
-0.084882692 -0.11646952 0.6630699 0.55314797 -0.22682491 -0.80160946 0.090134636
-0.51320904 -0.058491305 0.37713686 0.53331268 -0.36544305 -0.76290822 0.090134636
-0.61096597 -0.24741068 0.45019275 0.29245907 -0.6569277 -0.69491994 0.090134636
-0.12054861 -0.19887155 0.66505426 0.51954144 -0.27847961 -0.8077907 0.090134636
-0.19249836 -0.14071402 0.60121292 0.49633843 -0.26575369 -0.82645214 0.090134636
-0.16314204 -0.059713803 0.59611881 0.52636546 -0.21067853 -0.82374388 0.090134636
-0.13022399 -0.17751238 0.65163749 0.51802897 -0.26902634 -0.81195492 0.090134636
-0.13682584 -0.16086669 0.64200616 0.51778227 -0.2613363 -0.81461948 0.090134636
-0.50430626 -0.241652 0.49025548 0.32715487 -0.54342639 -0.77308309 0.090134636
-0.46115845 -0.21351853 0.49122787 0.37231851 -0.47789198 -0.7956118 0.090134636
-0.66986495 -0.34457254 0.54370952 0.042381529 -0.79419035 -0.60618937 0.090134636
-0.2872445 -0.22764429 0.58149034 0.4186382 -0.36606237 -0.83110791 0.090134636
-0.13950932 -0.15671101 0.63897419 0.5172171 -0.25967667 -0.81550872 0.090134636
-0.37139797 -0.20424907 0.52909005 0.40310907 -0.40070635 -0.82276213 0.090134636
-0.37876275 -0.65217686 0.8499018 -0.071841814 -0.68163335 -0.72815841 0.090134636
0.25904647 -0.58364987 1.4161187 0.93937033 -0.27110335 -0.20996745 0.090134636
-0.52730656 -0.21831466 0.46353444 0.35495454 -0.54226595 -0.76154774 0.090134636
-0.64248556 -0.26084295 0.45088911 0.25713024 -0.70406771 -0.66194618 0.090134636
-0.74936765 -0.26454115 0.41262466 0.22561505 -0.81773406 -0.52953649 0.090134636
-0.31399989 -0.29772097 0.60274386 0.35712495 -0.43488264 -0.82664311 0.090134636
-0.46730819 -0.29118592 0.53936553 0.27545163 -0.5537104 -0.78583151 0.090134636
-0.018637653 -0.55554825 0.90381145 0.56675601 -0.42459241 -0.70605165 0.090134636
-0.28393847 -0.05322016 0.51977909 0.50235963 -0.24189754 -0.83013278 0.090134636
-0.74449694 -0.33069256 0.51944107 0.019012205 -0.85448223 -0.51913255 0.090134636
0.0078358343 -0.17522405 0.75016212 0.61442906 -0.24502838 -0.74995869 0.090134636
-0.009077834 -0.18140049 0.7385686 0.60080332 -0.24927749 -0.7595368 0.090134636
-0.56410331 -0.22207265 0.44917527 0.34479809 -0.58204901 -0.73643279 0.090134636
-0.19167915 -0.45853558 0.7437737 0.36341214 -0.46593025 -0.80674696 0.090134636
-0.017323602 -0.16492574 0.72680181 0.59469801 -0.24238716 -0.76653945 0.090134636
-0.30318415 -0.10440835 0.52461767 0.47881937 -0.28502455 -0.83035719 0.090134636
-0.27864796 -0.17060959 0.56247026 0.4528847 -0.32045126 -0.83198947 0.090134636
-0.34138095 -0.20798133 0.54563969 0.40972903 -0.38380924 -0.82753402 0.090134636
-0.50429326 -0.31958681 0.54906583 0.21337302 -0.61309302 -0.76065034 0.090134636
-0.5749225 -0.3231546 0.53427649 0.16055924 -0.68692249 -0.70877236 0.090134636
-0.077679135 -0.3656829 0.76019335 0.52117044 -0.35721159 -0.77510083 0.090134636
-0.52809942 -0.29343888 0.52070075 0.24051766 -0.61464125 -0.75124389 0.090134636
-0.13709527 -0.0906642 0.62104392 0.53079623 -0.22233303 -0.8178162 0.090134636
0.081899501 -0.847938 1.2223009 0.75094032 -0.42633381 -0.50430954 0.090134636
-0.33737636 -0.34640852 0.62067616 0.30042818 -0.48826379 -0.81935424 0.090134636
-0.091332905 -0.10693833 0.65596837 0.5506075 -0.22290148 -0.80445403 0.090134636
-0.33682081 -0.17653485 0.53390491 0.4323301 -0.3563799 -0.82830191 0.090134636
-0.59564441 -0.28403381 0.4908222 0.2248268 -0.67612004 -0.70165133 0.090134636
-0.59958494 -0.2563512 0.46320936 0.27757305 -0.65401518 -0.70371681 0.090134636
-0.55777496 -0.22662391 0.45568347 0.33825064 -0.5805074 -0.74067384 0.090134636
-0.14975251 -0.30768847 0.68944496 0.4699294 -0.3519789 -0.80949193 0.090134636
-0.39897746 -0.3044672 0.5726341 0.29851729 -0.5045808 -0.81011456 0.090134636
-0.22110003 -0.065344281 0.56138653 0.50869054 -0.22865416 -0.83003086 0.090134636
-0.28285104 -0.18620135 0.56633508 0.44347677 -0.33367965 -0.83185714 0.090134636
-0.41069081 -0.20352516 0.50961024 0.3934544 -0.42839238 -0.81343323 0.090134636
-0.3976168 -0.13951354 0.48528251 0.44817135 -0.36407429 -0.81645107 0.090134636
-0.2605291 -0.17135492 0.57268047 0.45881945 -0.31234372 -0.83182096 0.090134636
-0.18536855 -0.31624708 0.67338753 0.43803844 -0.3731868 -0.81783491 0.090134636
-0.14336351 -0.22118193 0.65863347 0.49989456 -0.29805425 -0.81318456 0.090134636
-0.54985964 -0.071583241 0.35772058 0.53797179 -0.40356416 -0.74008268 0.090134636
-0.6219728 -0.18402603 0.38715857 0.41291675 -0.59598243 -0.68869787 0.090134636
-0.15012439 -0.11466158 0.61942714 0.52073616 -0.23851602 -0.81972188 0.090134636
-0.38149759 -0.9590373 1.1634053 -0.3331342 -0.68620324 -0.64664263 0.090134636
-0.61041516 -0.078776568 0.31541297 0.56497455 -0.45392033 -0.68902838 0.090134636
-0.40688336 -0.21137141 0.51558524 0.38724005 -0.43233639 -0.81432819 0.090134636
-0.38238031 -0.12615964 0.48795384 0.45850077 -0.34344217 -0.81964904 0.090134636
-0.46789235 -0.15629332 0.45514667 0.43220666 -0.4291465 -0.79311454 0.090134636
-0.57921606 -0.25865129 0.47324765 0.27898073 -0.63492328 -0.72044581 0.090134636
-0.65654933 -0.27451062 0.46076369 0.22140642 -0.73213983 -0.64416647 0.090134636
-0.70539224 -0.36024731 0.56522238 -0.029336898 -0.82999337 -0.55700117 0.090134636
-0.33138758 -0.11169157 0.51104373 0.47147301 -0.30387014 -0.82787448 0.090134636
-0.44927299 -0.14441365 0.45916674 0.44310999 -0.40393928 -0.80030406 0.090134636
-0.5818001 -0.22456604 0.44290787 0.33888429 -0.60251611 -0.72258687 0.090134636
-0.32817897 -0.16077627 0.53186309 0.44424647 -0.3392581 -0.82918572 0.090134636
-0.49770263 -0.20792824 0.47046643 0.37277347 -0.50448143 -0.77880579 0.090134636
-0.66566914 -0.30954915 0.49974513 0.1319003 -0.7700569 -0.62419122 0.090134636
-0.65494901 -0.26617616 0.45195204 0.24158499 -0.72257012 -0.64771068 0.090134636
-0.16385493 -0.22724988 0.64851546 0.48525807 -0.30870003 -0.81806409 0.090134636
-0.60032946 -0.066531926 0.31586424 0.57247514 -0.43211427 -0.69681376 0.090134636
-0.69516861 -0.26655382 0.43722799 0.23013148 -0.76527959 -0.60115445 0.090134636
-0.38587561 -0.26450148 0.55411285 0.34554335 -0.46120241 -0.81724668 0.090134636
-0.49664843 -0.30070627 0.53651649 0.2463088 -0.58983016 -0.76904637 0.090134636
-0.26463297 -0.35638139 0.65509945 0.35162851 -0.44454074 -0.82385731 0.090134636
-0.16730763 -0.7369265 0.94258416 0.24947658 -0.59276503 -0.76576173 0.090134636
-0.44856453 -0.27839899 0.537476 0.30099335 -0.52551723 -0.79576045 0.090134636
-0.33139271 -0.29162395 0.59205121 0.35113719 -0.44233495 -0.82525295 0.090134636
-0.093164504 -0.59627301 0.87740582 0.44303283 -0.48367035 -0.75484097 0.090134636
-0.50430626 -0.241652 0.49025548 0.32715487 -0.54342639 -0.77308309 0.090134636
-0.44425085 -0.26965511 0.53343683 0.31340662 -0.51406264 -0.79844594 0.090134636
-0.36422062 -0.26066008 0.56130666 0.35923702 -0.44165984 -0.82212245 0.090134636
-0.63180029 -0.22360936 0.4179233 0.33819753 -0.65287614 -0.67777222 0.090134636
-0.21710266 -0.10607794 0.57561636 0.49787828 -0.25245106 -0.8296901 0.090134636
-0.010473264 -0.57738477 0.92379612 0.577268 -0.42944822 -0.69450402 0.090134636
-0.37819323 -0.64012766 0.83863288 -0.058179535 -0.67825669 -0.73251826 0.090134636
-0.27864796 -0.17060959 0.56247026 0.4528847 -0.32045126 -0.83198947 0.090134636
-0.41322455 -0.19073084 0.50169981 0.40446571 -0.41910037 -0.81287289 0.090134636
-0.61427677 -0.26970059 0.47049582 0.24646692 -0.68262559 -0.68795085 0.090134636
-0.50834268 -0.18251964 0.44889575 0.40350252 -0.48846778 -0.77368271 0.090134636
-0.55197591 -0.16924696 0.41646987 0.42344868 -0.51322538 -0.74651921 0.090134636
0.18334191 -1.162773 1.803033 0.95676768 -0.21570906 -0.19510297 0.090134636
-0.18536855 -0.31624708 0.67338753 0.43803844 -0.3731868 -0.81783491 0.090134636
-0.33704287 -0.69389915 0.88507861 -0.042157024 -0.67182213 -0.73951191 0.090134636
-0.15677717 -0.9927296 1.1592306 0.15589954 -0.65213889 -0.74189633 0.090134636
-0.10970084 -0.56900179 0.85070479 0.42579219 -0.47988245 -0.76708138 0.090134636
-0.25293511 -0.10531361 0.55412072 0.4882997 -0.26466727 -0.83157361 0.090134636
-0.14766829 -0.11562233 0.62126893 0.52163333 -0.23847239 -0.81916392 0.090134636
-0.34868571 -0.2007333 0.5386501 0.41252249 -0.38275611 -0.82663351 0.090134636
-0.33004501 -0.20358388 0.54928499 0.41660011 -0.37326995 -0.82892334 0.090134636
-0.020445166 -0.11416411 0.70920056 0.5932917 -0.21897139 -0.77463311 0.090134636
0.20281324 -0.71540868 1.3600861 0.90515107 -0.30891815 -0.29201224 0.090134636
0.06952884 -0.71263039 1.0972549 0.71152496 -0.42120773 -0.56242007 0.090134636
-0.048513796 -0.31835511 0.75975126 0.55757958 -0.32325894 -0.76459706 0.090134636
-0.053811818 -0.17615426 0.70303965 0.56741661 -0.2523624 -0.78380585 0.090134636
-1.1657479 -0.89284515 2.4282019 -0.85172981 -0.40264758 -0.33530778 0.090134636
-0.33935815 -0.26560262 0.57487178 0.3674351 -0.42776039 -0.82584047 0.090134636
-0.30419025 -0.3109723 0.61395872 0.35363638 -0.43809545 -0.82644641 0.090134636
-0.36156094 -0.082524523 0.48293486 0.48570114 -0.29708475 -0.82209188 0.090134636
-0.23602709 -0.19464095 0.5950107 0.45846683 -0.31703842 -0.83023781 0.090134636
-0.28981709 -0.11278021 0.5351792 0.47727615 -0.28492475 -0.83127934 0.090134636
-0.27102414 -0.10269418 0.54269224 0.4852657 -0.27002576 -0.83162689 0.090134636
-0.29642099 -0.15991393 0.54866791 0.45287803 -0.32165724 -0.83152759 0.090134636
-0.44294918 -0.27874902 0.53983486 0.30328339 -0.52082264 -0.79797429 0.090134636
-0.39682391 -0.1411667 0.48645505 0.4469949 -0.36496219 -0.81669956 0.090134636
-0.13850737 -0.21546207 0.65955365 0.50443375 -0.29317108 -0.81215596 0.090134636
-0.16740575 -0.27345729 0.66473329 0.46792874 -0.33836812 -0.81642497 0.090134636
-0.13252766 -0.17614956 0.6497187 0.51698309 -0.26886737 -0.81267387 0.090134636
-0.50187659 -0.11172498 0.41149741 0.48070237 -0.41116154 -0.77451366 0.090134636
-0.56408244 -0.23303491 0.4579398 0.32687482 -0.59348381 -0.7354793 0.090134636
-0.29231489 -0.20774628 0.57028574 0.42802659 -0.35435721 -0.83139896 0.090134636
-0.22558483 -0.086127356 0.56455797 0.5015617 -0.24281262 -0.83034801 0.090134636
-0.20590428 -0.15215701 0.5969981 0.48730752 -0.27740261 -0.82799709 0.090134636
-0.60349685 -0.07080856 0.31594276 0.56974304 -0.43941218 -0.69448531 0.090134636
-0.017323602 -0.16492574 0.72680181 0.59469801 -0.24238716 -0.76653945 0.090134636
-0.067023672 -0.2010565 0.70182872 0.55558735 -0.26730019 -0.78732032 0.090134636
-0.3268066 -0.18874183 0.54437184 0.42733365 -0.35987309 -0.82938367 0.090134636
-0.52685666 -0.58249003 0.81001872 -0.21600474 -0.73874962 -0.63842845 0.090134636
-0.55139053 -0.5439049 0.77287841 -0.19702359 -0.74854827 -0.63313282 0.090134636
0.063648097 -0.13841145 0.78679496 0.65944123 -0.22814666 -0.71630049 0.090134636
-0.18792775 -0.063647702 0.58146757 0.51781315 -0.21861443 -0.82708961 0.090134636
-0.13234201 -0.08611349 0.62291044 0.53356844 -0.21893114 -0.81692958 0.090134636
-0.12113262 -0.084289677 0.62979257 0.53875369 -0.21590842 -0.8143267 0.090134636
-0.16314204 -0.059713803 0.59611881 0.52636546 -0.21067853 -0.82374388 0.090134636
-0.37265751 -0.25183928 0.55286121 0.36305058 -0.44072822 -0.82094634 0.090134636
-0.36959511 -0.24392845 0.55002767 0.37119073 -0.43200386 -0.82194287 0.090134636
-0.3896859 -0.23661277 0.53706014 0.36972591 -0.44086161 -0.81788981 0.090134636
-0.42669305 -0.20681515 0.50368232 0.38668799 -0.44360018 -0.80851179 0.090134636
-0.098455675 -0.12944508 0.65753627 0.54405713 -0.23578088 -0.8052386 0.090134636
-0.38090914 -0.12356459 0.48769587 0.46032083 -0.34043467 -0.81988353 0.090134636
-0.32179078 -0.24586618 0.57304734 0.39083326 -0.40066034 -0.82868612 0.090134636
-0.29588258 -0.23548108 0.58068645 0.40989116 -0.37681749 -0.83066106 0.090134636
0.10511988 -1.022496 1.4186432 0.8244549 -0.38647908 -0.41341031 0.090134636
-0.30946043 -0.18224318 0.55064034 0.43667015 -0.34501141 -0.83083469 0.090134636
-0.31169239 -0.18667305 0.55132347 0.43334946 -0.34957331 -0.83066642 0.090134636
-0.33999375 -0.14290088 0.51822448 0.45258614 -0.33215672 -0.82754922 0.090134636
-0.23183742 -0.20200397 0.60014796 0.45725426 -0.32009134 -0.82973492 0.090134636
-0.27152717 -0.19700578 0.57670945 0.44222209 -0.33559015 -0.83175647 0.090134636
-0.29909077 -0.14310382 0.54080683 0.46083024 -0.31082729 -0.83127725 0.090134636
-0.34718642 -0.1571369 0.52017927 0.44245368 -0.34735146 -0.82678998 0.090134636
-0.31827173 -0.16155392 0.53749496 0.44618082 -0.334369 -0.83013254 0.090134636
-0.31154016 -0.13171484 0.52963245 0.46398178 -0.30871743 -0.83030987 0.090134636
0.27882341 -0.43813831 1.322404 0.93187612 -0.27123687 -0.24090976 0.090134636
0.0012720162 -0.81049722 1.0974261 0.58731139 -0.49638787 -0.6392687 0.090134636
-0.14013433 -0.10933965 0.62428129 0.52620488 -0.23324126 -0.81774503 0.090134636
-0.19079594 0.036042832 0.55665392 0.53635079 -0.16368163 -0.8279711 0.090134636
-0.13709527 -0.0906642 0.62104392 0.53079623 -0.22233303 -0.8178162 0.090134636
-0.17620252 -0.22132337 0.63901222 0.47961688 -0.30962408 -0.82103628 0.090134636
-0.38309637 -0.53950697 0.74941546 0.046177283 -0.64505279 -0.76274145 0.090134636
0.012917825 -0.18009852 0.75595444 0.61868525 -0.24685621 -0.74584889 0.090134636
0.011343135 -0.20650397 0.76361656 0.61771029 -0.25880057 -0.74260104 0.090134636
-0.35453796 -0.62086439 0.82035553 0.0005638611 -0.65916669 -0.75199664 0.090134636
-0.32884881 -0.32962054 0.61411566 0.32147875 -0.46936366 -0.8224045 0.090134636
-0.23043376 -0.22032125 0.60811269 0.45000818 -0.33170354 -0.8291353 0.090134636
-0.15012439 -0.11466158 0.61942714 0.52073616 -0.23851602 -0.81972188 0.090134636
-0.051979057 -0.1658265 0.70107973 0.56949061 -0.24694179 -0.78402817 0.090134636
-0.24381775 -0.041755233 0.54105711 0.51104313 -0.2210182 -0.83065391 0.090134636
-0.30307075 -0.099639401 0.52305603 0.48103601 -0.28158835 -0.83024836 0.090134636
0.07761085 -0.26869026 0.84792984 0.68444186 -0.27929553 -0.67344886 0.090134636
-0.4461416 -0.17205328 0.47518387 0.41742086 -0.42715657 -0.80205804 0.090134636
-0.67572069 -0.36610353 0.57241732 -0.015408208 -0.80730015 -0.58993983 0.090134636
-0.64088774 -0.11585331 0.31739047 0.53465545 -0.52407855 -0.66293681 0.090134636
-0.39990404 -0.30746824 0.57417053 0.29476205 -0.50778604 -0.80948669 0.090134636
-1.0300878 -0.35933572 0.82597679 -0.45220706 -0.87300658 -0.1826698 0.090134636
-0.60726053 -0.35711971 0.56417543 0.067745052 -0.7416299 -0.66737968 0.090134636
-0.35532522 -0.18776929 0.52934736 0.41988856 -0.37665817 -0.82572526 0.090134636
