# .PCD v0.7 - Point Cloud Data file format
VERSION 0.7
FIELDS x y z normal_x normal_y normal_z curvature
SIZE 4 4 4 4 4 4 4
TYPE F F F F F F F
COUNT 1 1 1 1 1 1 1
WIDTH 135
HEIGHT 1
VIEWPOINT 0 0 0 1 0 0 0
POINTS 135
DATA ascii
-1.0443267 -1.7909184 0.37996411 0.65890169 0.036312174 -0.75135213 0.13734762
-1.6150255 -1.8105167 0.082301371 0.25939131 -0.096518919 -0.96093714 0.13734762
-1.4210855 -1.5811126 0.14376335 0.41356823 0.005189633 -0.91045833 0.13734762
-1.3246173 -1.0854065 0.15901099 0.45236817 -0.22026017 -0.86420399 0.13734762
-1.7147458 -2.0794537 0.12065299 0.12646744 -0.34569186 -0.92978662 0.13734762
-1.0119531 -1.8606274 0.40620342 0.67343467 0.02026011 -0.73896903 0.13734762
-1.5880201 -1.6998438 0.082354672 0.29486457 -0.042247418 -0.95460463 0.13734762
-1.9306449 -2.1368597 0.13285184 -0.0062393271 -0.47346112 -0.88079262 0.13734762
-1.1864939 -0.89718515 0.15251435 0.42704231 -0.50878793 -0.747509 0.13734762
-0.89132488 -1.1288325 0.56158388 0.82098174 -0.17903574 -0.54215789 0.13734762
-0.98715895 -1.0947162 0.42382625 0.72814232 -0.24060166 -0.64180958 0.13734762
-0.89727432 -1.0376232 0.51220095 0.7823602 -0.3081162 -0.54127347 0.13734762
-0.93933922 -1.1337949 0.49556348 0.78131539 -0.18437538 -0.59628183 0.13734762
-0.96503091 -1.1055245 0.4537304 0.75124377 -0.2239335 -0.62087566 0.13734762
-1.3551129 -1.1065934 0.14844692 0.43797746 -0.19297063 -0.87803078 0.13734762
-1.6333352 -0.60874283 -0.17937462 -0.017728757 -0.65754414 -0.75320739 0.13734762
-1.5429524 -1.9415489 0.12015395 0.27310437 -0.16618021 -0.9475221 0.13734762
-1.8884716 -1.6233127 0.01053726 0.14858697 -0.063666984 -0.9868477 0.13734762
-1.2097847 -1.6073297 0.26095167 0.55906886 0.032008186 -0.82850319 0.13734762
-1.6881182 -0.62147379 -0.16768286 -0.01479165 -0.61718065 -0.78668243 0.13734762
-1.0138826 -1.7560691 0.40980223 0.68665153 0.051767122 -0.72514123 0.13734762
-0.73911238 -1.6171679 0.81132782 0.8906818 0.12526023 -0.43703064 0.13734762
-1.0622333 -1.7893327 0.36461118 0.64558333 0.032666311 -0.76299089 0.13734762
-1.1521676 -1.1280634 0.28002489 0.59827954 -0.19885643 -0.77622014 0.13734762
-0.94867003 -1.0903995 0.46818784 0.76038927 -0.24161519 -0.60285175 0.13734762
-0.90331209 -1.7962054 0.52347517 0.76261204 0.068289809 -0.64324129 0.13734762
-0.8202222 -1.2188447 0.70377916 0.88490546 -0.059608877 -0.46194065 0.13734762
-0.95020336 -1.1731588 0.4921194 0.77941847 -0.14166881 -0.61027604 0.13734762
-1.2100066 -0.89356214 0.13704552 0.40828583 -0.50603443 -0.75975776 0.13734762
-1.3993503 -0.80237824 -7.5805392e-06 0.22102164 -0.55294263 -0.80337036 0.13734762
-1.4057623 -0.68712223 -0.095925845 0.098843835 -0.68997246 -0.71705502 0.13734762
-1.147282 -1.181844 0.29567957 0.61480451 -0.14394012 -0.77543318 0.13734762
-1.3126519 -0.79562199 0.021135561 0.24980141 -0.6031841 -0.75747484 0.13734762
-1.1923878 -1.0652329 0.23220403 0.54300892 -0.26793447 -0.79583442 0.13734762
-1.2079165 -1.0610325 0.22038759 0.52901685 -0.27051067 -0.80434144 0.13734762
-1.2499708 -1.0953271 0.20398265 0.5104267 -0.22313303 -0.83046746 0.13734762
-1.3268498 -1.0979394 0.160933 0.45501766 -0.20681952 -0.86613196 0.13734762
-1.0003546 -1.1535817 0.42748591 0.73326916 -0.1699065 -0.65836781 0.13734762
-1.408932 -1.208346 0.13888557 0.42303643 -0.10198308 -0.90035528 0.13734762
-1.5146383 -0.71715289 -0.084788285 0.10227637 -0.601318 -0.7924369 0.13734762
-1.5001242 -2.0775597 0.16425626 0.26029351 -0.27883402 -0.92439109 0.13734762
-1.5518432 -1.6721295 0.093044512 0.32044512 -0.02787031 -0.94685698 0.13734762
-1.6166843 -1.9662515 0.10585454 0.22062291 -0.20646854 -0.95325559 0.13734762
-1.0519562 -1.016161 0.32266256 0.63173783 -0.35358068 -0.6898464 0.13734762
-1.2054765 -0.99093747 0.19416453 0.49215439 -0.36405411 -0.79072666 0.13734762
-1.4491957 -1.0885649 0.10204409 0.37080875 -0.19132939 -0.90878707 0.13734762
-1.9522345 -1.8962333 0.041920461 0.061659858 -0.23596908 -0.96980238 0.13734762
-1.5758572 -1.6799966 0.085390396 0.30497941 -0.033933055 -0.95175421 0.13734762
-1.4214901 -1.761274 0.14544685 0.38964707 -0.033735044 -0.9203462 0.13734762
-1.4695085 -0.68945253 -0.10184281 0.086470701 -0.65584052 -0.74993068 0.13734762
-0.99476051 -1.1243927 0.42542878 0.73102158 -0.20352662 -0.65129435 0.13734762
-1.2170801 -0.71449548 -0.027891722 0.18352939 -0.74750143 -0.63840318 0.13734762
-1.2115006 -1.0960263 0.22881176 0.54029393 -0.22827086 -0.80992275 0.13734762
-1.1628749 -1.6411116 0.29246342 0.58990395 0.038122706 -0.80657297 0.13734762
-1.3764802 -0.74550015 -0.037784938 0.1708678 -0.63687664 -0.75179273 0.13734762
-1.2198428 -0.75201142 0.012753449 0.23384258 -0.70224106 -0.67243969 0.13734762
-0.88747424 -1.0898129 0.55269337 0.81366485 -0.22851808 -0.53453624 0.13734762
-0.88600093 -0.94107115 0.45725939 0.71570259 -0.47263753 -0.51418239 0.13734762
-0.84497809 -1.8441577 0.59144431 0.79775733 0.069347106 -0.59897768 0.13734762
-1.5064982 -1.9881963 0.13982749 0.28395167 -0.19466664 -0.93886971 0.13734762
-1.6251324 -1.9408948 0.09866523 0.2225882 -0.18758148 -0.95669621 0.13734762
-1.0572526 -1.4880716 0.38910526 0.68730468 0.03910042 -0.72531611 0.13734762
-1.0809245 -1.7856058 0.34923005 0.63197005 0.029502366 -0.77443105 0.13734762
-0.960572 -1.0911626 0.45373031 0.75020111 -0.24234642 -0.61519635 0.13734762
-1.8820554 -1.608379 0.010600945 0.15365987 -0.057859533 -0.98642838 0.13734762
-1.4249071 -1.7778955 0.14468388 0.38460585 -0.040959604 -0.92217171 0.13734762
-1.5488474 -1.6527703 0.09355244 0.32484943 -0.022455426 -0.94549912 0.13734762
-1.6281388 -1.9128305 0.092776984 0.22819871 -0.16638693 -0.95929182 0.13734762
-0.75316912 -1.4783741 0.81942868 0.90106505 0.10147168 -0.42164597 0.13734762
-2.163857 -1.6331434 -0.013074155 0.031269744 -0.11169535 -0.99325037 0.13734762
-1.6474516 -1.7410338 0.067734078 0.25377697 -0.068823263 -0.96481115 0.13734762
-2.145165 -1.6779912 -0.0070199003 0.030221611 -0.13091421 -0.99093294 0.13734762
-0.86880612 -0.94502836 0.4856509 0.73633546 -0.46087214 -0.49538568 0.13734762
-1.1300173 -1.1115216 0.29296398 0.61144131 -0.2193273 -0.76028615 0.13734762
-1.3203298 -1.0524312 0.15210766 0.44262561 -0.25740993 -0.85896605 0.13734762
-1.6599177 -1.8116336 0.070950605 0.23318002 -0.10690109 -0.9665398 0.13734762
-1.9225329 -1.9600692 0.060958944 0.057201181 -0.28435349 -0.95701152 0.13734762
-1.2370253 -1.0683155 0.20414577 0.50986576 -0.25638959 -0.82115847 0.13734762
-0.90299749 -1.7938564 0.52409923 0.7631349 0.068948157 -0.64255059 0.13734762
-1.3117224 -1.8377568 0.19962557 0.45225617 -0.042856202 -0.89085782 0.13734762
-1.0788484 -1.7349784 0.35332322 0.64066583 0.042090014 -0.76666534 0.13734762
-1.4404711 -0.82838118 0.005411787 0.22773562 -0.49912453 -0.83606887 0.13734762
-1.490653 -0.84918982 0.003694979 0.22322671 -0.44898883 -0.86520451 0.13734762
-1.4026904 -0.98449963 0.091957986 0.35657245 -0.31423196 -0.87983769 0.13734762
-1.4343221 -0.96244192 0.071679592 0.32609919 -0.33018139 -0.88579881 0.13734762
-1.2627628 -1.7323656 0.22439833 0.5043807 0.006129948 -0.86345965 0.13734762
-1.3060937 -1.1000195 0.17257933 0.47051406 -0.20846896 -0.85741311 0.13734762
-1.2797433 -0.74131632 -0.016973915 0.19827834 -0.68830681 -0.69779611 0.13734762
-1.2498913 -1.1352166 0.21371016 0.52275264 -0.18121058 -0.83300203 0.13734762
-1.3949 -1.1637275 0.13961713 0.42493054 -0.13631712 -0.89490318 0.13734762
-2.3422639 -2.0858662 0.14310721 -0.15071198 -0.53042006 -0.83423042 0.13734762
-1.3686116 -1.6794651 0.16807377 0.43729517 -0.00037465844 -0.89931798 0.13734762
-1.0249213 -1.6731291 0.40587667 0.68952334 0.061015774 -0.72168875 0.13734762
-1.2051523 -1.7232291 0.26018646 0.54775661 0.019325089 -0.83641452 0.13734762
-0.87503088 -0.92926913 0.46148422 0.71281487 -0.49239242 -0.49944434 0.13734762
-0.81627357 -1.664829 0.6622206 0.8384217 0.10626119 -0.53456295 0.13734762
-1.1930482 -1.1210498 0.24814254 0.56313002 -0.20271178 -0.80111951 0.13734762
-1.4321697 -1.6201314 0.13868748 0.40213668 0.00010051463 -0.91557962 0.13734762
-0.85756803 -1.7170776 0.5923366 0.80450344 0.093184017 -0.58659261 0.13734762
-0.82486171 -1.7580243 0.63189316 0.82136005 0.095329262 -0.56238776 0.13734762
-1.2612439 -1.1628363 0.21214746 0.52073812 -0.15353785 -0.83979636 0.13734762
-1.766804 -0.6507172 -0.14581825 -0.0046404921 -0.54617351 -0.83765918 0.13734762
-1.3121153 -1.7913618 0.19772828 0.45997044 -0.022859344 -0.88763994 0.13734762
-1.3735704 -1.8496106 0.1708639 0.40647808 -0.063260563 -0.91146785 0.13734762
-1.368607 -1.118451 0.14428747 0.43211505 -0.17929943 -0.88381463 0.13734762
-0.96717334 -1.8678483 0.44867858 0.70628279 0.028961729 -0.70733714 0.13734762
-1.5728053 -1.3878491 0.081955977 0.33035934 -0.019233651 -0.94365925 0.13734762
-0.91434419 -1.6487198 0.52855217 0.77389872 0.084341362 -0.62766814 0.13734762
-1.1635051 -1.0756494 0.25610772 0.57052529 -0.25924391 -0.77929038 0.13734762
-1.0392457 -1.5223688 0.40430436 0.69742197 0.049398698 -0.71495616 0.13734762
-1.0189835 -1.0551277 0.37327451 0.68298346 -0.2969647 -0.66734213 0.13734762
-0.81360734 -1.0620046 0.66727418 0.86725128 -0.23750365 -0.43756971 0.13734762
-1.2819315 -1.11647 0.19013649 0.49332076 -0.19560379 -0.84756935 0.13734762
-1.0239122 -1.6998218 0.40462235 0.6867379 0.058768023 -0.72452563 0.13734762
-1.3648183 -0.73954201 -0.040272448 0.16806461 -0.64986944 -0.74123144 0.13734762
-1.3761684 -1.0821068 0.13260376 0.41584674 -0.21306612 -0.88412344 0.13734762
-1.4394838 -1.0568426 0.098732814 0.36629322 -0.22405021 -0.90312278 0.13734762
-1.5690953 -1.6337669 0.08627566 0.31515166 -0.021065829 -0.94880748 0.13734762
-1.1929238 -0.94437963 0.17806536 0.46639058 -0.43518028 -0.77012849 0.13734762
-1.3938622 -0.98362553 0.095252261 0.36141643 -0.31811634 -0.87645888 0.13734762
-1.3586113 -1.0759494 0.13946636 0.4255203 -0.2231406 -0.87700671 0.13734762
-1.8361324 -2.6480367 3.5376327 -0.037313025 -0.98724163 0.15479565 0.13734762
-0.90469718 -1.1097255 0.53507954 0.80489993 -0.20676608 -0.55622286 0.13734762
-0.93316346 -1.2236531 0.52400732 0.79824626 -0.088705361 -0.59576356 0.13734762
-1.1901519 -1.0657029 0.23389186 0.54497641 -0.26771176 -0.79456347 0.13734762
-1.2769985 -0.71369153 -0.044689622 0.16422623 -0.72179168 -0.67234409 0.13734762
-1.2074471 -1.0828667 0.22767189 0.53853971 -0.2441563 -0.80645066 0.13734762
-1.4216048 -1.1055422 0.11718545 0.39327443 -0.1813982 -0.90134895 0.13734762
-1.8446839 -1.6295341 0.017964471 0.16835138 -0.059282333 -0.98394281 0.13734762
-1.393392 -0.9252944 0.071636081 0.3259199 -0.39175883 -0.86040759 0.13734762
-0.75851053 -0.98775774 0.73696089 0.87961942 -0.31967157 -0.35224962 0.13734762
-1.1248003 -1.0660363 0.28226954 0.59794241 -0.27622262 -0.75244004 0.13734762
-1.1555415 -0.83780849 0.12376226 0.37816197 -0.61041325 -0.69598073 0.13734762
-0.86869216 -0.97776985 0.5141269 0.76756871 -0.40052897 -0.50041467 0.13734762
-1.756062 -0.70087951 -0.11494815 0.032985333 -0.49670964 -0.86728972 0.13734762
