# .PCD v0.7 - Point Cloud Data file format
VERSION 0.7
FIELDS x y z normal_x normal_y normal_z curvature
SIZE 4 4 4 4 4 4 4
TYPE F F F F F F F
COUNT 1 1 1 1 1 1 1
WIDTH 136
HEIGHT 1
VIEWPOINT 0 0 0 1 0 0 0
POINTS 136
DATA ascii
-0.64575213 -1.1632775 0.18342705 -0.72638851 0.5091272 0.46168089 0.12880346
-0.70562273 -0.97383213 0.066596709 -0.66303474 -0.09107361 0.74302799 0.12880346
-0.66511339 -0.60458404 0.10660464 -0.66318589 0.32307899 0.67513287 0.12880346
-0.31370899 -1.2201606 0.71915078 -0.041893747 0.9676373 0.24884321 0.12880346
-0.53990465 -0.74789101 0.22712231 -0.57514966 -0.05807567 0.81598413 0.12880346
-0.4354631 -0.57453984 0.28811806 -0.51682246 0.16918761 0.83920801 0.12880346
-0.4869113 -0.58843255 0.25681397 -0.57213759 0.17821501 0.80056101 0.12880346
-0.66702449 -0.65688097 0.12227143 -0.65850824 0.15503936 0.73643035 0.12880346
-0.49079803 -1.0373337 0.27423966 -0.61642379 0.32802922 0.71583414 0.12880346
-0.6785714 -0.59089112 0.085696548 -0.6573565 0.39240411 0.64335173 0.12880346
-0.87365717 -0.66007626 -0.050101288 -0.53869754 0.33768573 0.77186352 0.12880346
-0.88232118 -0.65627682 -0.057805702 -0.52647114 0.36012664 0.77015382 0.12880346
-0.7566523 -1.0847566 0.011186323 -0.70525175 0.0074163 0.70891815 0.12880346
-0.454613 -0.54705971 0.26813456 -0.55541706 0.26958644 0.78666067 0.12880346
-0.77436489 -1.306457 0.84136599 -0.24267052 0.96916467 -0.042788573 0.12880346
-0.8620826 -0.64728361 -0.047871277 -0.54638642 0.3795037 0.74661821 0.12880346
-0.5801484 -0.56257296 0.16865282 -0.64896291 0.36853847 0.66560239 0.12880346
-0.64830828 -0.68132764 0.14242662 -0.64864051 0.078425214 0.75704354 0.12880346
-0.59939176 -0.70596594 0.18413697 -0.62231171 0.0045074299 0.78275657 0.12880346
-0.7327956 -1.2894441 0.31738037 -0.54371399 0.83370501 0.096493594 0.12880346
-0.55899477 -1.1768005 0.3461915 -0.55308878 0.75800228 0.34572437 0.12880346
-0.45130825 -0.71591514 0.28536838 -0.48808524 -0.047835086 0.87148416 0.12880346
-0.39661491 -0.58907437 0.31230745 -0.45471877 0.1036407 0.88458431 0.12880346
-0.6924113 -0.73606533 0.10767614 -0.6392321 -0.0059187855 0.76899111 0.12880346
-0.68000126 -0.68098736 0.11497001 -0.65343338 0.10171103 0.75011975 0.12880346
-0.42474958 -0.55350381 0.28986275 -0.51431799 0.21826631 0.82935929 0.12880346
-0.77680975 -1.1502051 -0.0035981075 -0.74100417 0.13574208 0.65763742 0.12880346
-1.036985 -0.92195457 -0.12867689 -0.3046253 -0.21995127 0.92672807 0.12880346
-0.8036164 -0.69663417 0.013381755 -0.609438 0.15128183 0.77826673 0.12880346
-0.78922719 -0.87234777 0.016495677 -0.59041047 -0.14649616 0.79369664 0.12880346
-0.63688982 -0.77208656 0.15131955 -0.62547398 -0.066464618 0.77740902 0.12880346
-0.55195212 -0.62997705 0.21571556 -0.61578083 0.12695991 0.77762151 0.12880346
-0.56251359 -0.72721207 0.21200658 -0.59473294 -0.035765003 0.80312741 0.12880346
-0.8888604 -0.67737436 -0.053580418 -0.52598095 0.28171673 0.8024835 0.12880346
-0.88823807 -0.65412486 -0.062845252 -0.51793694 0.37370861 0.76946944 0.12880346
-0.56778812 -0.40906599 -0.12346878 -0.41298029 0.90202963 0.12565735 0.12880346
-0.42073655 -1.1484684 0.45339271 -0.35921058 0.83012313 0.42645442 0.12880346
-0.41383314 -0.95225036 0.30322358 -0.49902138 0.15515752 0.85258657 0.12880346
-0.85025704 -0.62361085 -0.05281838 -0.54389751 0.46699378 0.69720322 0.12880346
-0.78551257 -0.63116765 0.0057705496 -0.61522573 0.36667922 0.6978851 0.12880346
-0.18263531 -1.0138828 0.40971085 -0.12506928 0.47038418 0.87355387 0.12880346
-0.69970602 -1.0284992 0.067856081 -0.69845921 -0.0154707 0.71548259 0.12880346
-0.54956675 -0.55422676 0.19331355 -0.63579839 0.35928062 0.68313825 0.12880346
-0.5479365 -0.64447927 0.22085086 -0.60703689 0.090153113 0.78954333 0.12880346
-0.28256318 -1.1251246 0.49121976 -0.1816708 0.8212837 0.54082239 0.12880346
-0.77180284 -1.1127694 -0.0031048199 -0.71519673 0.044113483 0.69752967 0.12880346
-0.73293722 -0.70362902 0.072229162 -0.64218384 0.082494669 0.76209879 0.12880346
-0.52066624 -0.65705955 0.24207763 -0.57805061 0.047562361 0.81461358 0.12880346
-0.5431391 -0.7338382 0.22573708 -0.5791235 -0.046427734 0.81391674 0.12880346
-0.22271417 -0.73919415 0.36601612 -0.17048745 -0.057889018 0.9836579 0.12880346
-0.78875738 -1.0759923 -0.018992634 -0.66956586 -0.055293322 0.74069172 0.12880346
-0.61492753 -0.58754903 0.14762518 -0.65916091 0.32190976 0.6796183 0.12880346
-0.70427316 -0.62641281 0.07854256 -0.65846878 0.29104295 0.69405538 0.12880346
-0.68273526 -0.6663034 0.11016764 -0.65715826 0.14241065 0.74017715 0.12880346
-0.72909349 -0.67907268 0.071834356 -0.64849782 0.14517274 0.74724525 0.12880346
-0.39173889 -1.2135731 0.66427821 -0.13719255 0.96261364 0.23356622 0.12880346
-0.37949914 -0.59038502 0.32092863 -0.42877367 0.089422926 0.89897537 0.12880346
-0.43052697 -0.53586745 0.28077483 -0.53171968 0.27958179 0.79944247 0.12880346
-0.73746496 -0.74670649 0.070480272 -0.63026738 -0.0070417929 0.77634621 0.12880346
-0.74971461 -0.65682983 0.048121188 -0.64323926 0.23355378 0.72917479 0.12880346
-0.37257838 -1.111658 0.42879972 -0.34992376 0.75121427 0.55966997 0.12880346
-0.6475352 -0.71060336 0.14490174 -0.64011973 0.018740065 0.76804662 0.12880346
-0.63123405 -0.57001412 0.12148304 -0.65768683 0.40944591 0.63229907 0.12880346
-0.82192332 -0.82253242 0.00090269768 -0.57055622 -0.10439553 0.8145963 0.12880346
-0.60266376 -0.56488758 0.14761621 -0.65476972 0.39005435 0.64740574 0.12880346
-0.6523881 -1.1454808 0.15662488 -0.74604195 0.41726783 0.51894987 0.12880346
-0.08748617 -0.88492078 0.37863865 -0.0030945963 0.11249989 0.99364692 0.12880346
-0.86234808 -1.05126 -0.074310139 -0.56705487 -0.16434884 0.80711722 0.12880346
-0.61014593 -0.54728091 0.12763868 -0.64909518 0.46953738 0.59850657 0.12880346
-0.64473414 -0.6616106 0.14288636 -0.65345788 0.12337433 0.74684101 0.12880346
-0.67540556 -0.66068852 0.11557546 -0.6582287 0.15173018 0.73736894 0.12880346
-0.67745298 -0.69346792 0.11859453 -0.64989465 0.07032273 0.75676394 0.12880346
-0.77119642 -0.69256729 0.038694426 -0.62973136 0.13930337 0.76422048 0.12880346
-0.71052265 -1.1070011 0.063158013 -0.74821228 0.14547668 0.64731365 0.12880346
-0.68800062 -0.69957536 0.11009204 -0.64870489 0.063299865 0.758403 0.12880346
-0.50836468 -0.74025655 0.24913491 -0.54794449 -0.056398347 0.8346113 0.12880346
-0.600025 -0.7195819 0.1835386 -0.61934602 -0.015263032 0.78496975 0.12880346
-0.44692168 -0.57446444 0.28089318 -0.53173882 0.17967029 0.82763058 0.12880346
-0.45481402 -0.70285153 0.28403255 -0.49397242 -0.037328981 0.86867589 0.12880346
-0.37649545 -0.68404937 0.32385883 -0.39325225 -0.038441043 0.91862667 0.12880346
-0.59339499 -0.61892235 0.17880055 -0.64629304 0.19449289 0.73788738 0.12880346
-0.7202847 -0.64426494 0.070423536 -0.65462196 0.24626492 0.7147193 0.12880346
-0.49170536 -0.57393467 0.24961837 -0.58390623 0.22483315 0.78006637 0.12880346
-0.67953587 -0.78791142 0.11523851 -0.63002712 -0.076812677 0.77276492 0.12880346
-0.87179619 -0.67264307 -0.043778405 -0.54494059 0.28697994 0.78783393 0.12880346
-0.89571321 -0.68030828 -0.057005666 -0.51828372 0.27537015 0.80966246 0.12880346
-1.0731523 -1.0377697 -0.17141806 -0.25604168 -0.27533612 0.92662436 0.12880346
-0.73187774 -1.2902651 0.33012763 -0.53377128 0.84092981 0.089023821 0.12880346
-0.69042665 -0.54397184 0.032498904 -0.61138809 0.59920049 0.51687849 0.12880346
-0.758982 -1.1201681 0.011096871 -0.73144227 0.086458534 0.67640013 0.12880346
-0.65647823 -0.56402892 0.090334587 -0.65022516 0.46873042 0.59791219 0.12880346
-0.36151081 -0.66302538 0.3308236 -0.37563199 -0.024364324 0.92644858 0.12880346
-0.76159018 -0.66906834 0.041429866 -0.63716602 0.20402735 0.743231 0.12880346
-0.74265081 -0.65800661 0.054732926 -0.6463238 0.22266102 0.72985452 0.12880346
-0.8620826 -0.64728361 -0.047871277 -0.54638642 0.3795037 0.74661821 0.12880346
-0.30527365 -0.80110288 0.34317237 -0.29636326 -0.035250593 0.95442456 0.12880346
-0.49231067 -0.57566631 0.24965927 -0.58376354 0.22022825 0.78148556 0.12880346
-0.54681021 -1.1972364 0.42044437 -0.46036762 0.84643263 0.26760694 0.12880346
-0.40573347 -0.983711 0.3155556 -0.49556139 0.25209475 0.83118421 0.12880346
-0.91325891 -0.63374335 -0.090688244 -0.46958265 0.47871691 0.74183708 0.12880346
-0.82669061 -0.6615144 -0.014693428 -0.58935171 0.29090169 0.75368482 0.12880346
-0.87242174 -0.57797188 -0.11116109 -0.45332813 0.67592794 0.58104646 0.12880346
-0.86114675 -1.1156527 -0.083934896 -0.6130842 -0.087615766 0.78514409 0.12880346
-0.85083413 -0.67685825 -0.027452655 -0.56852299 0.25453839 0.78229904 0.12880346
-0.67540729 -0.73082316 0.12186023 -0.63981825 -0.0038765743 0.76851648 0.12880346
-0.57325578 -0.68223733 0.20415033 -0.61313725 0.031405933 0.78935188 0.12880346
-1.1095669 -1.1670485 -0.21805769 -0.23541985 -0.24421988 0.94070941 0.12880346
-0.25331581 -1.0103736 0.39310345 -0.2391941 0.44556409 0.8627044 0.12880346
-0.8876642 -0.57621866 -0.12482204 -0.42799893 0.69450122 0.57834673 0.12880346
-1.1169581 -1.1975492 -0.22745097 -0.23806503 -0.22091959 0.94579047 0.12880346
-0.61187857 -1.1223094 0.1943792 -0.72378707 0.42065951 0.5469715 0.12880346
-0.56828105 -0.63438815 0.20332952 -0.62616849 0.12945122 0.76886636 0.12880346
-0.51803553 -1.0074952 0.24024598 -0.64046562 0.1910475 0.74384451 0.12880346
-0.71091831 -1.116599 0.065083377 -0.75378925 0.17365468 0.63375533 0.12880346
-0.60029155 -0.71007544 0.18343014 -0.62173909 -0.0014360566 0.78322309 0.12880346
-0.48596069 -0.51144952 0.22618018 -0.59745115 0.43666297 0.6725902 0.12880346
-0.79072028 -0.65592939 0.01239855 -0.61845618 0.27736852 0.73524052 0.12880346
-0.76428658 -0.50484633 -0.1269684 -0.43949613 0.82965565 0.34425953 0.12880346
-0.84260684 -0.64822257 -0.032795541 -0.56882721 0.35769221 0.74060237 0.12880346
-0.69171846 -1.145866 0.10157988 -0.76472008 0.32007396 0.55924582 0.12880346
-0.35158935 -0.57971519 0.33248219 -0.39184982 0.093314372 0.91528475 0.12880346
-0.50996631 -0.60742366 0.24393949 -0.58761454 0.14838666 0.79541844 0.12880346
-0.37767202 -0.59433931 0.32216641 -0.42405427 0.080335818 0.90206659 0.12880346
-0.75610495 -0.67087448 0.046622071 -0.63970733 0.19323641 0.74393159 0.12880346
-0.38368922 -0.58595645 0.31843281 -0.43732119 0.10146593 0.89356297 0.12880346
-0.69132459 -0.62037653 0.08832974 -0.66099161 0.29758573 0.68886346 0.12880346
-0.9073993 -0.70361114 -0.057600141 -0.50695449 0.19763488 0.83900988 0.12880346
-0.26228675 -0.92391628 0.36201349 -0.25769559 0.17203914 0.95078677 0.12880346
-0.59693468 -0.50786704 0.10403845 -0.61919689 0.60848331 0.49632975 0.12880346
-0.39992487 -0.58642268 0.31026664 -0.46092376 0.11180111 0.88036913 0.12880346
-0.54274088 -0.63462573 0.22360793 -0.60650396 0.10855786 0.78763455 0.12880346
-0.75505501 -0.69122642 0.051886465 -0.63743061 0.1309626 0.75929636 0.12880346
-0.61081767 -1.2395575 0.46155798 -0.43053707 0.89054793 0.14684057 0.12880346
-0.33581322 -0.6584478 0.34078509 -0.3388347 -0.026706168 0.94046682 0.12880346
-0.4240323 -0.54996514 0.28935474 -0.5153814 0.22813232 0.82603735 0.12880346
-1.0332285 -0.91530043 -0.125872 -0.31037691 -0.21388462 0.92623943 0.12880346
