# .PCD v0.7 - Point Cloud Data file format
VERSION 0.7
FIELDS x y z normal_x normal_y normal_z curvature
SIZE 4 4 4 4 4 4 4
TYPE F F F F F F F
COUNT 1 1 1 1 1 1 1
WIDTH 84
HEIGHT 1
VIEWPOINT 0 0 0 1 0 0 0
POINTS 84
DATA ascii
0.18384959 -0.50411457 1.1630034 -0.35825595 0.16964497 0.91808128 0.083737493
-0.22649448 -0.16147439 0.8236931 -0.75508374 -0.23044479 0.61379457 0.083737493
-0.26092842 -0.018579178 0.83991015 -0.69694358 -0.25191069 0.67142433 0.083737493
-0.2079767 -0.087558128 0.87173563 -0.71622837 -0.21856704 0.66275591 0.083737493
-0.30672523 -0.36754474 0.66997266 -0.75330788 -0.012725075 0.65754491 0.083737493
-0.083831303 -0.10751162 0.98466754 -0.61701316 -0.084139064 0.78244191 0.083737493
-0.30486709 -0.24957655 0.69230986 -0.76279384 -0.18988375 0.61813408 0.083737493
-0.26584446 -0.28403428 0.73197043 -0.78072089 -0.1517466 0.60617477 0.083737493
-0.34774011 -0.18976475 0.66222906 -0.73284805 -0.25484326 0.63086343 0.083737493
-0.16186973 -0.025769256 0.93221849 -0.64061326 -0.13484602 0.75593072 0.083737493
-0.2985276 -0.022898227 0.7981196 -0.70359653 -0.29072618 0.64840591 0.083737493
-0.23163848 0.087036267 0.89568192 -0.60141927 -0.13290852 0.78780085 0.083737493
0.20190805 -0.18013726 1.1166745 -0.13445443 0.19787191 0.97096276 0.083737493
-0.36113524 -0.29965347 0.61597395 -0.71961904 -0.10273988 0.68672627 0.083737493
-0.28029814 0.2417984 0.87799752 -0.46195802 0.00067634101 0.88690156 0.083737493
-0.44280759 -0.39416441 0.54691172 -0.56026816 0.15233232 0.81418329 0.083737493
0.19056009 -0.2246438 1.123081 -0.19169725 0.16514435 0.96746033 0.083737493
-0.27706546 -0.41391382 0.70585722 -0.76106095 0.052044764 0.64658922 0.083737493
-0.32488683 0.17045762 0.84237564 -0.57621157 -0.17867352 0.79753119 0.083737493
-0.21004692 -0.26054394 0.81129467 -0.78235233 -0.16945021 0.59934253 0.083737493
0.17604351 0.11319797 1.0250913 0.040707365 0.39637008 0.91718793 0.083737493
-0.34193432 -0.2947492 0.63751674 -0.73799723 -0.11926336 0.66418093 0.083737493
-0.28964001 -0.50397992 0.71116972 -0.70471442 0.2344206 0.66964507 0.083737493
-0.20571239 -0.08808703 0.8740052 -0.7154665 -0.21644734 0.66427267 0.083737493
-0.20516393 -0.47927573 0.80217642 -0.77200866 0.12017293 0.62414831 0.083737493
-0.16748694 -0.060194872 0.92022383 -0.67272443 -0.16372496 0.72155106 0.083737493
-0.29312718 -0.090575047 0.77298522 -0.73096555 -0.2891522 0.61812645 0.083737493
-0.2738986 -0.2406573 0.73422974 -0.77325988 -0.19840747 0.60224879 0.083737493
-0.27203044 -0.076687038 0.803949 -0.72661978 -0.27447256 0.62983215 0.083737493
-0.36155441 0.068617828 0.77582908 -0.6532672 -0.31850791 0.68687308 0.083737493
-0.081723846 -0.10646669 0.98643076 -0.61321729 -0.080853365 0.78576541 0.083737493
-0.085684463 -0.15854278 0.97661954 -0.65873325 -0.10758944 0.74464422 0.083737493
-0.16196471 -0.18013968 0.89443195 -0.73919034 -0.18155614 0.6485638 0.083737493
0.3074435 0.087552898 1.0210167 0.17088321 0.42972311 0.88664365 0.083737493
-0.33362931 -0.005876624 0.76825958 -0.69247103 -0.31855306 0.64730817 0.083737493
-0.23702544 0.003247716 0.87114477 -0.67440003 -0.21313442 0.70693588 0.083737493
-0.293944 -0.022207515 0.80339026 -0.70326996 -0.28629133 0.6507293 0.083737493
0.28088567 -0.31364828 1.1519904 -0.074130245 0.19655362 0.97768676 0.083737493
-0.33057311 -0.1933434 0.68104875 -0.74344635 -0.24965172 0.6204527 0.083737493
-0.23686977 0.047994431 0.88344365 -0.64047611 -0.17936105 0.74673957 0.083737493
0.16541794 0.25318184 0.95611429 0.10647298 0.49030238 0.86502433 0.083737493
-0.055452351 -0.46503595 0.98184395 -0.73615324 0.057512324 0.67436689 0.083737493
0.07906764 0.28887194 0.94364446 0.042435471 0.47833064 0.87715393 0.083737493
0.01474837 -0.049027417 1.0435973 -0.38662872 0.096144147 0.91721022 0.083737493
0.010799874 -0.05083061 1.0420911 -0.39642191 0.089140624 0.91373062 0.083737493
-0.26196897 -0.18164818 0.77131194 -0.76269907 -0.2401005 0.60053468 0.083737493
-0.37148502 -0.12591331 0.66390353 -0.70867026 -0.31212351 0.63274431 0.083737493
-0.37345392 -0.15723073 0.64691061 -0.71143615 -0.2881344 0.64096576 0.083737493
-0.29852304 -0.065131672 0.77864307 -0.72110701 -0.2951363 0.62681675 0.083737493
-0.26974589 -0.1744045 0.76439613 -0.75987148 -0.24729115 0.60120082 0.083737493
-0.28054774 -0.58086294 0.75538653 -0.65562606 0.36735725 0.65969926 0.083737493
-0.12496434 -0.46581766 0.90055954 -0.7751264 0.063932933 0.62856317 0.083737493
-0.19400029 -0.49788696 0.8198958 -0.76734573 0.14513968 0.62459189 0.083737493
-0.50596726 -0.47009534 0.5350371 -0.38117048 0.3672545 0.84842986 0.083737493
0.12259907 -0.12028088 1.0899202 -0.24109344 0.16477393 0.95641178 0.083737493
0.31131059 0.12151743 1.0032196 0.18576112 0.45138049 0.87278199 0.083737493
0.29967117 -0.32154074 1.1547465 -0.044236343 0.20490308 0.97778213 0.083737493
-0.044473216 -0.27431083 0.99944395 -0.67811155 -0.072460681 0.73137826 0.083737493
0.1479537 0.10574846 1.028823 -0.00095236738 0.37452853 0.92721492 0.083737493
-0.27275598 -0.07713341 0.80291665 -0.72682941 -0.27505955 0.62933397 0.083737493
-0.2066036 -0.089257501 0.87266064 -0.71652091 -0.21757229 0.66276699 0.083737493
-0.31170815 0.1600692 0.84966439 -0.58075839 -0.17128707 0.79585201 0.083737493
-0.27830243 -0.40715355 0.70391452 -0.76243764 0.040592149 0.64578718 0.083737493
-0.41062644 -0.24167253 0.57833272 -0.67442703 -0.17879808 0.71636546 0.083737493
-0.35935301 -0.45243245 0.62672055 -0.65624928 0.1988833 0.72786146 0.083737493
0.31458989 0.17834696 0.97156596 0.20499979 0.48513013 0.85007286 0.083737493
0.21560946 0.10177418 1.027457 0.081633903 0.40694967 0.90979552 0.083737493
-0.12278311 0.20279114 0.95130092 -0.31575531 0.19989525 0.92754543 0.083737493
-0.29006559 0.22996068 0.87249994 -0.48633611 -0.035237167 0.873061 0.083737493
-0.3456983 0.17593674 0.82856303 -0.57780951 -0.20354716 0.79038262 0.083737493
0.40606514 -0.48897564 1.1911488 0.066425979 0.23655221 0.96934545 0.083737493
0.20703283 -0.43907437 1.1599751 -0.28910494 0.15263696 0.94505042 0.083737493
0.048288841 -0.035880677 1.0543314 -0.30527139 0.1518884 0.94007409 0.083737493
-0.36213443 -0.29944289 0.61495984 -0.71865523 -0.10262323 0.68775225 0.083737493
-0.24044955 -0.24925606 0.7748816 -0.78041506 -0.18559863 0.59708083 0.083737493
0.28894141 -0.26935393 1.1431301 -0.034161691 0.21489042 0.97604054 0.083737493
-0.27826238 -0.42762101 0.70583272 -0.75527459 0.078181289 0.65072876 0.083737493
0.14764643 -0.18948944 1.1075193 -0.25198826 0.1446581 0.95685732 0.083737493
-0.24133486 -0.2383783 0.77719247 -0.77812582 -0.19483764 0.59712517 0.083737493
-0.29542372 0.22082712 0.86895216 -0.50237238 -0.058793444 0.86265016 0.083737493
-0.32611239 0.19861418 0.84712672 -0.54777616 -0.14309405 0.82429689 0.083737493
0.43429241 -0.12482254 1.0838699 0.22164582 0.33966213 0.91405839 0.083737493
-0.56775701 -0.51032096 0.53273022 -0.2367769 0.47449377 0.84781623 0.083737493
-0.4033114 -0.40944523 0.5792318 -0.61831957 0.14951134 0.7715745 0.083737493
