# .PCD v0.7 - Point Cloud Data file format
VERSION 0.7
FIELDS x y z normal_x normal_y normal_z curvature
SIZE 4 4 4 4 4 4 4
TYPE F F F F F F F
COUNT 1 1 1 1 1 1 1
WIDTH 54
HEIGHT 1
VIEWPOINT 0 0 0 1 0 0 0
POINTS 54
DATA ascii
-0.40254715 -0.41111946 0.5918988 0.88493645 0.34620982 -0.31149027 0.10250986
-0.38623801 -0.40159822 0.64831817 0.88046628 0.35002926 -0.3197791 0.10250986
-0.29724228 -0.69143516 0.66427636 0.98468745 0.064573698 -0.16192846 0.10250986
-0.33730397 -0.5474658 0.62488019 0.90659285 0.31247446 -0.28363559 0.10250986
-0.42217657 -0.47019804 0.47667906 0.8631711 0.35348487 -0.36053306 0.10250986
-0.3289969 -0.67123389 0.52368081 0.94163144 0.23085114 -0.24502659 0.10250986
-0.31577966 -0.60791868 0.6375913 0.94300467 0.22842693 -0.24199857 0.10250986
-0.40827048 -0.41922203 0.56673861 0.88422799 0.34540215 -0.31438547 0.10250986
-0.43983024 -0.22117728 0.64279848 0.96321565 0.13078436 -0.23475753 0.10250986
0.067988828 -0.17285465 1.067697 0.075341366 -0.080381289 -0.99391276 0.10250986
-0.27706325 -0.7474972 0.84723073 0.96847677 -0.22021779 -0.11643394 0.10250986
-0.39088026 -0.49418268 0.53020757 0.86997092 0.36879432 -0.32732454 0.10250986
-0.39395195 -0.29580575 0.73143089 0.88865227 0.29551673 -0.35066655 0.10250986
-0.34644321 -0.47825763 0.67313719 0.8848452 0.3400034 -0.31850687 0.10250986
-0.29587275 -0.72263539 0.66566998 0.99136406 0.0092007127 -0.13081548 0.10250986
-0.43400896 -0.56868738 0.36798432 0.79000485 0.36789197 -0.49045673 0.10250986
-0.38920647 -0.27452108 0.76008195 0.88207394 0.28506601 -0.37507719 0.10250986
-0.32369235 -0.61620265 0.59880823 0.93697655 0.24909914 -0.24499904 0.10250986
-0.19748934 -0.29120579 0.9866938 0.5314821 0.16293922 -0.83125061 0.10250986
0.02350877 -0.40022033 1.1062428 0.36231565 -0.35501015 -0.86179763 0.10250986
-0.37837127 -0.1886095 0.83562398 0.86201805 0.21780066 -0.45769829 0.10250986
-0.35001028 -0.19681874 0.87828797 0.7938717 0.24635722 -0.55594587 0.10250986
-0.42596617 -0.46956536 0.46830463 0.86176735 0.35030854 -0.36693454 0.10250986
-0.48533821 -0.49718308 0.33651134 0.79088533 0.28839737 -0.53974748 0.10250986
0.050076742 -0.1829008 1.0669199 0.096735194 -0.072241731 -0.99268496 0.10250986
-0.40327361 -0.12937602 0.804618 0.92803711 0.10055608 -0.35865802 0.10250986
-0.41369507 -0.094905891 0.78061634 0.95681721 0.017466586 -0.29016501 0.10250986
-0.41976455 -0.18160166 0.737391 0.94610012 0.13763636 -0.29317361 0.10250986
-0.42909798 -0.54321557 0.39636213 0.81472337 0.36742041 -0.44858453 0.10250986
-0.34384477 -0.62054127 0.52287328 0.9112289 0.29988429 -0.28236735 0.10250986
-0.3184045 -0.53621328 0.69613564 0.91421735 0.27533326 -0.29731837 0.10250986
-0.37854278 -0.24083544 0.80657363 0.86257476 0.26787621 -0.42919356 0.10250986
-0.038938493 -0.25325251 1.0556493 0.25024411 -0.038467724 -0.96741825 0.10250986
-0.3208918 -0.46745875 0.75031352 0.88019258 0.30559486 -0.36314294 0.10250986
-0.36686176 -0.44906649 0.64877254 0.87817317 0.35679895 -0.31860071 0.10250986
-0.53306442 -0.53880811 0.26235452 0.66897458 0.23462635 -0.70528257 0.10250986
-0.52013844 -0.52066475 0.28189892 0.71493059 0.24414384 -0.65518546 0.10250986
-0.1945805 -0.24538638 0.99744034 0.46961597 0.17033881 -0.86628258 0.10250986
-0.32712728 -0.33385253 0.8370766 0.80521607 0.31848022 -0.50019741 0.10250986
-0.20061004 -0.40403095 0.96515381 0.69319546 0.088260956 -0.71532512 0.10250986
-0.38535494 0.04458975 0.83322871 0.94004846 -0.18521176 -0.28636602 0.10250986
-0.43363824 -0.20946328 0.67395514 0.9591074 0.13555416 -0.24847156 0.10250986
0.25527421 -0.33290207 1.1371031 0.14860012 -0.48960721 -0.8591873 0.10250986
-0.4730584 -0.43544555 0.39302215 0.86358631 0.26381373 -0.42967546 0.10250986
-0.4766427 -0.3731049 0.42126101 0.91257429 0.19369872 -0.36012352 0.10250986
-0.032711621 -0.19679904 1.0560158 0.18058573 0.0011418841 -0.9835586 0.10250986
-0.2460247 -0.29778427 0.94917512 0.63108146 0.23074949 -0.74060172 0.10250986
-0.40250927 -0.49196059 0.50254035 0.86420417 0.36805663 -0.34305322 0.10250986
-0.49635056 -0.41896674 0.35643816 0.86467022 0.19471879 -0.46306583 0.10250986
-0.52685517 -0.52729142 0.27240372 0.69541258 0.23697114 -0.67841434 0.10250986
-0.52477384 -0.5461449 0.26772541 0.67183781 0.25454614 -0.69558626 0.10250986
-0.42868865 -0.24142039 0.67212749 0.94443059 0.18819976 -0.26950261 0.10250986
-0.37870029 -0.3997494 0.67077363 0.87704122 0.35065165 -0.32839328 0.10250986
-0.40518892 -0.47917098 0.50948209 0.86704576 0.3648634 -0.33927324 0.10250986
