# .PCD v0.7 - Point Cloud Data file format
VERSION 0.7
FIELDS x y z normal_x normal_y normal_z curvature
SIZE 4 4 4 4 4 4 4
TYPE F F F F F F F
COUNT 1 1 1 1 1 1 1
WIDTH 83
HEIGHT 1
VIEWPOINT 0 0 0 1 0 0 0
POINTS 83
DATA ascii
-0.91353297 -0.80726427 0.50699276 -0.5192703 0.26990655 0.81086916 0.086584285
-0.88324547 -1.501156 0.49037787 -0.20357776 -0.2636154 0.94290137 0.086584285
-0.97284961 -1.1100934 0.51775235 -0.50174868 0.0034634895 0.86500651 0.086584285
-1.1338959 -1.7887256 0.33090171 -0.39932624 -0.17217165 0.90049738 0.086584285
-0.8885296 -0.80689085 0.52210426 -0.48295492 0.26257643 0.83534914 0.086584285
-1.3460785 -1.0711331 0.17472032 -0.68855661 0.16173406 0.70691717 0.086584285
-1.0218835 -0.74312645 0.39307892 -0.6439904 0.3530871 0.67867953 0.086584285
-0.98929888 -1.139406 0.50791234 -0.51447201 -0.011058282 0.85743588 0.086584285
-0.53338075 -1.063949 0.58964121 0.18032882 -0.12018923 0.97623569 0.086584285
-0.83139032 -1.2306728 0.56344068 -0.21593665 -0.15525855 0.96398449 0.086584285
-1.0705689 -1.0060525 0.43761557 -0.65081698 0.13319123 0.7474606 0.086584285
-1.6671052 -1.7608542 0.055361141 -0.29118827 0.1417987 0.94609857 0.086584285
-1.0883594 -1.7598327 0.35624516 -0.36779955 -0.20217285 0.90766162 0.086584285
-1.8865175 -1.6205846 0.0024427462 0.015328328 0.13167018 0.99117506 0.086584285
-1.6161456 -1.966428 0.10515958 -0.2856383 0.17016977 0.94310814 0.086584285
-1.1018658 -0.8232336 0.35167819 -0.69021112 0.29214427 0.66201234 0.086584285
-0.78701371 -1.1576136 0.58264506 -0.16557117 -0.1221579 0.97860289 0.086584285
-0.91378218 -0.79996681 0.50436181 -0.52165705 0.27771297 0.80669039 0.086584285
-0.96994656 -1.1789606 0.51746321 -0.47009453 -0.051028822 0.8811397 0.086584285
-1.090678 -1.0412134 0.42572522 -0.65977561 0.11284645 0.74294132 0.086584285
-1.0760496 -1.0837438 0.44356596 -0.63661796 0.074316241 0.76759017 0.086584285
-1.1852781 -1.0792115 0.34139496 -0.70560002 0.11964242 0.69843704 0.086584285
-0.99086863 -0.7173444 0.40806571 -0.62058491 0.37392497 0.68924195 0.086584285
-1.0031085 -0.76907998 0.42311132 -0.62803936 0.32723305 0.70603478 0.086584285
-1.1255264 -1.9155191 0.30973306 -0.31623247 -0.17896587 0.93164814 0.086584285
-0.750745 -1.0608833 0.59720433 -0.13761434 -0.058203299 0.9887743 0.086584285
-1.1951309 -1.0895282 0.33316591 -0.70713121 0.11627784 0.697456 0.086584285
-0.78621227 -1.8390931 0.38495043 0.035375711 -0.34975597 0.93617266 0.086584285
-1.1723443 -1.0965804 0.35706922 -0.6982168 0.10395604 0.70829827 0.086584285
-0.99085498 -1.053322 0.50450617 -0.54833424 0.059743963 0.83412242 0.086584285
-0.90176606 -0.94473273 0.54555655 -0.4542273 0.12112308 0.8826136 0.086584285
-1.6420863 -2.1351585 0.1341707 -0.18786465 0.23118462 0.95459968 0.086584285
-1.4833753 -1.7249237 0.13282195 -0.49308947 0.064230144 0.86760432 0.086584285
-1.2946881 -1.8121121 0.24524413 -0.48971823 -0.053184967 0.87025708 0.086584285
-0.76277626 -1.1689953 0.584656 -0.12027173 -0.13925491 0.98292565 0.086584285
-1.5382239 -1.9526746 0.12989718 -0.35696182 0.12626983 0.92554533 0.086584285
-1.6668856 -2.036113 0.10597317 -0.20868295 0.212229 0.95467812 0.086584285
-1.5573088 -1.7043619 0.091715395 -0.43603453 0.096194543 0.89477402 0.086584285
-1.2458956 -1.0813411 0.27928025 -0.71507233 0.13619733 0.68565434 0.086584285
-1.8768191 -1.6082121 0.0007302275 0.0021377716 0.12907991 0.99163187 0.086584285
-1.454097 -0.81449628 0.0074068243 -0.51590139 0.28391114 0.80823278 0.086584285
-1.0038449 -0.82528973 0.44599333 -0.62250561 0.27451468 0.73289049 0.086584285
-0.97624493 -1.1687201 0.51457232 -0.48377436 -0.040115096 0.87427294 0.086584285
-0.92650533 -1.0900273 0.54244918 -0.4369252 -0.0035396824 0.89949089 0.086584285
-1.3859676 -1.1338513 0.15019061 -0.66626298 0.13872385 0.73270005 0.086584285
-0.96167821 -0.79853827 0.46995938 -0.58260632 0.29134691 0.75874031 0.086584285
-1.2197608 -1.0886474 0.30780253 -0.71247584 0.12452532 0.69055891 0.086584285
-1.2331859 -1.1140443 0.29835814 -0.71131152 0.11359841 0.6936363 0.086584285
-1.8271056 -0.61608446 -0.10683553 0.19282757 0.16024995 0.96805859 0.086584285
-1.445071 -0.93969172 0.053735103 -0.57879496 0.22597021 0.7835393 0.086584285
-1.1204985 -1.4295439 0.39960951 -0.55971515 -0.10135154 0.82246387 0.086584285
-0.84469283 -1.0858955 0.57499707 -0.29607123 -0.039940208 0.95433044 0.086584285
-1.8053682 -1.6881188 0.015612383 -0.1023384 0.14793494 0.983688 0.086584285
-1.2907591 -1.1042203 0.23731145 -0.70906669 0.13463528 0.69216889 0.086584285
-0.97021234 -0.97787476 0.51006436 -0.54577166 0.11822002 0.82955247 0.086584285
-1.1057962 -0.81344581 0.34316072 -0.69151521 0.30059659 0.6568473 0.086584285
-2.2506483 -1.5960802 0.084638156 0.38240367 0.091375723 0.91946608 0.086584285
-1.2897022 -1.845299 0.24589886 -0.46940944 -0.056286186 0.88118482 0.086584285
-1.0557768 -1.0119988 0.45123994 -0.63599026 0.12275892 0.7618705 0.086584285
-0.99420542 -0.91935641 0.48215371 -0.59345174 0.18259698 0.78388351 0.086584285
-1.3736287 -1.0637257 0.14675945 -0.67117357 0.16850998 0.72189361 0.086584285
-1.6635214 -0.44583997 -0.17074431 0.08953733 0.29898655 0.95004743 0.086584285
-2.0867794 -0.65967625 -0.017315898 0.40126234 0.048854884 0.91465938 0.086584285
-1.5160071 -0.55866086 -0.11931317 -0.23415223 0.36937532 0.89929676 0.086584285
-1.4772756 -1.7895595 0.14099404 -0.47162792 0.065848172 0.87933558 0.086584285
-1.6480107 -0.66249937 -0.10805274 -0.090858154 0.25314593 0.96315211 0.086584285
-1.5122242 -0.68764275 -0.068098217 -0.34524342 0.32032415 0.88215613 0.086584285
-1.3413872 -0.79934025 0.088480428 -0.63635224 0.31225744 0.70537305 0.086584285
-1.3427008 -0.64330965 0.0091200229 -0.5544529 0.40510339 0.72696161 0.086584285
-1.275591 -1.028932 0.23618986 -0.71361703 0.1732695 0.67876977 0.086584285
-1.3446791 -1.099597 0.1823056 -0.69009417 0.14770316 0.70848697 0.086584285
-1.3453615 -1.147938 0.19092217 -0.68930829 0.12541969 0.71352923 0.086584285
-1.4073049 -1.213625 0.14463826 -0.65081161 0.11152302 0.75100386 0.086584285
-1.3495244 -1.0804007 0.17346333 -0.68707359 0.1576841 0.70927119 0.086584285
-1.4659092 -0.63155204 -0.070956431 -0.37867063 0.36691394 0.84969562 0.086584285
-1.595372 -0.47879839 -0.16167477 -0.034829728 0.34029359 0.93967396 0.086584285
-1.2831912 -0.74721134 0.11835858 -0.65824443 0.35041267 0.66627717 0.086584285
-1.3556788 -1.0555556 0.16178524 -0.68219185 0.17059316 0.71099383 0.086584285
-1.1173784 -1.7459979 0.34671748 -0.40639859 -0.18066952 0.89565545 0.086584285
-1.6198952 -1.9242585 0.096579537 -0.29844433 0.16123997 0.94070858 0.086584285
-1.3783087 -0.66446126 -0.005620223 -0.5276401 0.38345829 0.75799447 0.086584285
-1.375535 -1.0712417 0.14672521 -0.67043948 0.16517697 0.72334462 0.086584285
-1.3463223 -1.1064755 0.18212566 -0.68934894 0.14470761 0.70982939 0.086584285
