# .PCD v0.7 - Point Cloud Data file format
VERSION 0.7
FIELDS x y z normal_x normal_y normal_z curvature
SIZE 4 4 4 4 4 4 4
TYPE F F F F F F F
COUNT 1 1 1 1 1 1 1
WIDTH 92
HEIGHT 1
VIEWPOINT 0 0 0 1 0 0 0
POINTS 92
DATA ascii
-0.95951676 -1.2493389 1.0513277 -0.85939217 0.16423939 -0.48422161 0.15773517
-0.86945003 -0.64140624 -0.036151271 -0.353506 0.21380618 0.91067034 0.15773517
-0.9050194 -0.63695681 -0.050307654 -0.33181238 0.16685823 0.92847127 0.15773517
-0.74204195 -0.9975971 0.083730899 -0.86601961 -0.096326672 0.49064362 0.15773517
-1.0742267 -1.1189241 -0.19459201 -0.30742949 -0.14628616 0.94025928 0.15773517
-0.71988267 -1.1310582 0.53074437 -0.9650262 0.06341625 -0.25436747 0.15773517
-0.70743948 -0.85831964 0.61356717 -0.93301439 0.22829349 -0.27814791 0.15773517
-0.82375085 -1.1143306 -0.051982362 -0.67765844 -0.19441941 0.70921093 0.15773517
-1.361446 -0.40522152 -0.17580627 -0.18162353 0.10463843 0.97778511 0.15773517
-0.6599471 -0.83919567 0.33269501 -0.9649995 0.25902072 0.041038733 0.15773517
-0.66326731 -0.69022924 0.11944818 -0.64600044 0.53521907 0.54426461 0.15773517
-0.87362206 -0.64128715 -0.037791505 -0.35144737 0.20722589 0.91298532 0.15773517
-0.97802621 -1.1843275 -0.16856657 -0.39525959 -0.14009112 0.90782398 0.15773517
-0.93089128 -0.48365822 -0.10550562 -0.071255736 0.42770734 0.90110433 0.15773517
-0.76473826 -1.0559462 0.033435881 -0.8135131 -0.15200563 0.56132936 0.15773517
-1.0426602 -1.0750643 -0.1752501 -0.35856313 -0.18815266 0.91434735 0.15773517
-1.0929892 -1.0824069 -0.19467533 -0.30557331 -0.1638062 0.93797255 0.15773517
-0.63857079 -0.77879333 0.36911038 -0.91845292 0.39524177 -0.015104874 0.15773517
-0.54182702 -0.63571173 0.21821919 -0.54297936 0.81968617 0.18245 0.15773517
-0.95820975 -0.67859453 -0.066032708 -0.35930434 0.023760626 0.93291789 0.15773517
-1.4330362 -1.8077173 1.0634606 -0.14411385 0.96568334 -0.21607137 0.15773517
-1.0223752 -1.2282538 -0.19049117 -0.30961674 -0.069159657 0.94834298 0.15773517
-1.031518 -0.92357028 -0.13491482 -0.39811224 -0.2171881 0.89125526 0.15773517
-1.0526313 -1.1894797 -0.19676425 -0.29378748 -0.093192227 0.95131707 0.15773517
-0.80203426 -0.69168353 0.0086428877 -0.49087429 0.23075375 0.84011614 0.15773517
-0.90368658 -0.45159617 -0.12167885 -0.0030620138 0.51883966 0.85486609 0.15773517
-0.94966465 -1.1070356 -0.1396852 -0.46193624 -0.19859837 0.86439204 0.15773517
-1.0037727 -1.0713037 -0.15807912 -0.40247682 -0.20117378 0.8930518 0.15773517
-0.72774798 -0.69426125 0.060149014 -0.57863253 0.38029721 0.72149736 0.15773517
-0.69352651 -0.72362936 0.11080065 -0.70353609 0.39591098 0.59016222 0.15773517
-1.0013509 -1.1428114 -0.17159957 -0.38117778 -0.16233583 0.91013765 0.15773517
-1.0553763 -1.1941866 -0.19804531 -0.28755248 -0.086265258 0.95387203 0.15773517
-1.0512668 -1.1413747 -0.19032595 -0.32159752 -0.13991506 0.93648213 0.15773517
-0.82981336 -1.0210093 -0.032211058 -0.67023325 -0.18906507 0.71766412 0.15773517
-0.77855408 -0.64449966 0.0042554508 -0.40713739 0.37525082 0.83272201 0.15773517
-0.67078745 -0.67348158 0.095478594 -0.57979196 0.55202293 0.5992595 0.15773517
-0.86844456 -0.63970715 -0.03616596 -0.35104582 0.2188741 0.91041803 0.15773517
-0.87481904 -0.62686497 -0.041715764 -0.32631052 0.23422885 0.91578287 0.15773517
-0.86430216 -1.1128345 -0.086356707 -0.59816957 -0.20238855 0.77539152 0.15773517
-0.82781416 -0.66152483 -0.013226057 -0.41267297 0.24484894 0.87735397 0.15773517
-0.85819441 -0.69753265 -0.020665361 -0.44845381 0.12268178 0.88534647 0.15773517
-0.80794013 -0.35154313 -0.21893238 0.1948818 0.71955824 0.66652608 0.15773517
-0.9086628 -0.57168138 -0.067416497 -0.2237884 0.29099619 0.93018275 0.15773517
-0.57933837 -0.61057132 0.096366122 -0.38240239 0.81142247 0.44199768 0.15773517
-0.67600834 -0.72689384 0.13604756 -0.74003869 0.42905 0.51793712 0.15773517
-0.91927761 -0.68946993 -0.04980259 -0.39281482 0.051872611 0.91815346 0.15773517
-1.0678262 -0.28806978 -0.21529719 0.13722771 0.59439921 0.79237497 0.15773517
-1.0781627 -0.28503564 -0.21579261 0.1344194 0.59043467 0.79581296 0.15773517
-2.0062823 -0.96067888 -0.26572642 0.11522763 0.62729293 0.77021176 0.15773517
-0.77745849 -1.1075104 0.0014059767 -0.78152019 -0.17224386 0.59963179 0.15773517
-0.7160725 -1.2223675 0.077060625 -0.92759931 -0.10300503 0.35909542 0.15773517
-1.0541481 -1.0603807 -0.17666067 -0.35176525 -0.19160524 0.91626889 0.15773517
-0.6778549 -0.73942989 0.14349593 -0.76963633 0.39796555 0.49928284 0.15773517
-0.65804189 -0.70524412 0.14149153 -0.70260739 0.51535887 0.49066088 0.15773517
-0.74422568 -0.68491477 0.04309544 -0.53591979 0.36351192 0.7620033 0.15773517
-0.5933885 -0.63403761 0.12503262 -0.48414454 0.76512712 0.42448145 0.15773517
-0.69201463 -0.98245436 0.45303917 -0.98268372 0.10206474 -0.15464635 0.15773517
-0.61385995 -0.73054463 0.37447044 -0.85355443 0.52014786 -0.029851468 0.15773517
-0.78532362 -0.56578279 -0.040077433 -0.20649166 0.51136237 0.83418804 0.15773517
-0.71294165 -1.0924119 0.12554342 -0.94001639 -0.094114423 0.32788971 0.15773517
-1.0135641 -0.83345312 -0.1062723 -0.40607548 -0.18127966 0.89567876 0.15773517
-0.92975318 -0.35498568 -0.18760346 0.13270135 0.62320286 0.77071947 0.15773517
-0.81745195 -0.40645856 -0.16212222 0.11387712 0.66992962 0.73363906 0.15773517
-1.1376473 -0.32428956 -0.18412639 0.050226826 0.47239083 0.8799569 0.15773517
-1.1442685 -0.3237116 -0.18407077 0.046566822 0.46690875 0.88307858 0.15773517
-0.87351704 -0.63640165 -0.038886532 -0.34324497 0.21717601 0.91379291 0.15773517
-0.90866995 -0.66713649 -0.0472803 -0.37230232 0.10488555 0.92216593 0.15773517
-0.57403618 -0.3930043 -0.2499273 0.23071545 0.82640368 0.5136413 0.15773517
-0.82060879 -1.0767376 -0.038536098 -0.68727392 -0.19416222 0.69996828 0.15773517
-0.81493473 -1.1468711 -0.052214056 -0.69293237 -0.18634197 0.69650656 0.15773517
-0.92283469 -0.55055326 -0.077377871 -0.18762739 0.31126806 0.93161589 0.15773517
-1.1481498 -0.32461217 -0.18340199 0.042886622 0.46142012 0.88614458 0.15773517
-0.54975611 -0.63835645 0.20724249 -0.54673684 0.80994374 0.21229695 0.15773517
-0.60667914 -0.46988806 -0.1237293 0.085805185 0.81407285 0.5743891 0.15773517
-0.84055334 -0.41436931 -0.15203606 0.090344511 0.6401177 0.76294637 0.15773517
-0.6848954 -1.1861316 0.2484813 -0.99885988 -0.026137777 0.039947581 0.15773517
-0.87391716 -0.66707075 -0.032770496 -0.39238453 0.15607797 0.90646237 0.15773517
-0.67892337 -0.66902697 0.083989508 -0.55623454 0.54260319 0.6294322 0.15773517
-0.74683625 -0.6690681 0.033585213 -0.49268919 0.39108869 0.77737182 0.15773517
-1.3300674 -0.28619716 -0.20062578 -0.048860911 0.36504516 0.92970675 0.15773517
-1.1947356 -0.32523099 -0.18170716 0.01049096 0.41388512 0.91026866 0.15773517
-0.6514377 -0.77315348 0.23869237 -0.88985652 0.38446069 0.24565303 0.15773517
-0.796983 -0.49564266 -0.089412622 -0.043799203 0.59701723 0.80103189 0.15773517
-0.93262047 -0.42824927 -0.1355194 0.022406355 0.51960033 0.85411561 0.15773517
-0.67762309 -0.89611167 0.43770409 -0.97546387 0.1839294 -0.12099681 0.15773517
-0.67692304 -0.86698568 0.47527835 -0.96124882 0.2249414 -0.15938018 0.15773517
-0.7297101 -0.65103 0.034119446 -0.45639017 0.46513674 0.75852215 0.15773517
-1.2038922 -0.97995633 -0.20922641 -0.26279554 -0.17545523 0.94876444 0.15773517
-1.0309926 -0.98523265 -0.14982438 -0.392566 -0.21825796 0.89345139 0.15773517
-0.86836123 -0.62440974 -0.040068261 -0.32412565 0.24991903 0.91240507 0.15773517
-0.7664206 -0.68387818 0.027776439 -0.51032639 0.31814027 0.79897046 0.15773517
-0.88649851 -0.53694499 -0.075785637 -0.15657674 0.39440903 0.90549725 0.15773517
