# .PCD v0.7 - Point Cloud Data file format
VERSION 0.7
FIELDS x y z normal_x normal_y normal_z curvature
SIZE 4 4 4 4 4 4 4
TYPE F F F F F F F
COUNT 1 1 1 1 1 1 1
WIDTH 106
HEIGHT 1
VIEWPOINT 0 0 0 1 0 0 0
POINTS 106
DATA ascii
-0.71106303 -0.96001548 0.55515373 0.51251847 -0.4552075 -0.72808719 0.069908053
-0.61347473 -1.0818626 0.6969558 0.55106854 -0.39701605 -0.73396301 0.069908053
-0.67483354 -1.2380245 0.7390815 0.46495888 -0.41469514 -0.78220278 0.069908053
0.34377778 -1.8630586 2.0439456 0.83990908 -0.1450426 -0.52298701 0.069908053
-0.72362572 -0.97096217 0.55332088 0.49952275 -0.46184033 -0.73292601 0.069908053
-0.79938275 -0.94263935 0.48612952 0.44064781 -0.51033419 -0.73850423 0.069908053
-0.6011793 -0.82217199 0.55838597 0.60032016 -0.41293514 -0.68490899 0.069908053
-0.45759907 -0.84486407 0.70207763 0.63362724 -0.37531573 -0.67650175 0.069908053
-1.0198977 -1.1266977 0.55621189 -0.01694195 -0.63049394 -0.77600926 0.069908053
-0.84601927 -1.2275994 0.6548683 0.2473751 -0.52178985 -0.81641954 0.069908053
-0.35170987 -1.3982613 1.0570159 0.64983785 -0.2671186 -0.71158868 0.069908053
-0.18569803 -1.1752803 1.1299678 0.68293583 -0.29730323 -0.66724014 0.069908053
-0.3618241 -0.73204082 0.72919607 0.63593268 -0.38825428 -0.66696942 0.069908053
-0.80281812 -0.95001847 0.48919949 0.43405744 -0.51240641 -0.74096817 0.069908053
-0.94652879 -0.92204607 0.39990452 0.25917491 -0.61628538 -0.7436536 0.069908053
-0.8570466 -0.6427266 0.21938653 0.51916254 -0.54426062 -0.65897697 0.069908053
-0.2305631 -0.66947103 0.81394964 0.60565501 -0.42366081 -0.67356777 0.069908053
-0.94087034 -1.3965445 0.75037962 -0.020430164 -0.54437256 -0.83859473 0.069908053
-0.42522287 -0.8810572 0.75228256 0.63800603 -0.36576486 -0.67761672 0.069908053
-0.51747894 -1.6619544 1.0217423 0.51530635 -0.28762737 -0.80729789 0.069908053
-0.1481784 -0.6127243 0.84751749 0.55674034 -0.47097504 -0.684268 0.069908053
-0.35519025 -1.7317934 1.1641978 0.6264835 -0.21594667 -0.74892288 0.069908053
-0.249075 -1.7199415 1.25657 0.68123841 -0.1900961 -0.70694959 0.069908053
-0.6370185 -0.92343795 0.58881956 0.56791067 -0.42015764 -0.7077747 0.069908053
-0.14510237 -1.153137 1.1616453 0.68326491 -0.30629629 -0.66282094 0.069908053
-0.81151611 -1.4074392 0.77246249 0.21751885 -0.47905657 -0.85040599 0.069908053
-0.32738662 -0.1351198 0.3631742 0.54184574 -0.49669868 -0.67800713 0.069908053
0.28619882 -1.1089338 1.5668672 0.56006986 -0.524436 -0.6413179 0.069908053
-0.30671626 -0.67386311 0.746755 0.62398678 -0.4054656 -0.66801059 0.069908053
-0.65238869 -0.77451795 0.48422042 0.58936298 -0.43487969 -0.68083107 0.069908053
-0.54128915 -0.71669215 0.54921961 0.62674487 -0.40457159 -0.66596746 0.069908053
-0.69936711 -1.4538332 0.83611244 0.36834389 -0.40722227 -0.83575881 0.069908053
-1.1623631 -0.89482337 0.35447389 -0.14113179 -0.72834456 -0.67051923 0.069908053
-0.54668099 -0.87051123 0.63486952 0.61206913 -0.39161524 -0.68702906 0.069908053
0.010098113 -1.034012 1.2574823 0.64385015 -0.38640565 -0.66041476 0.069908053
-0.68399334 -0.90404361 0.54013473 0.5456813 -0.44349557 -0.71101588 0.069908053
-0.74365014 -1.1710297 0.66307354 0.41354087 -0.46132863 -0.78495848 0.069908053
-1.1304889 -0.93604976 0.3920967 -0.10736364 -0.71048236 -0.69547677 0.069908053
-1.0257287 -1.1064842 0.53976834 -0.01521157 -0.63703012 -0.77068883 0.069908053
-0.84509915 -1.0643101 0.54672521 0.33040774 -0.53584754 -0.7769801 0.069908053
-0.86685532 -1.0414687 0.52169132 0.31104761 -0.55241299 -0.77336234 0.069908053
-0.13309948 -0.71512997 0.92891902 0.58345485 -0.44484663 -0.67947918 0.069908053
-0.14493984 -0.61292702 0.85028762 0.55507267 -0.47243592 -0.68461567 0.069908053
-0.14851144 -1.6448343 1.3386642 0.71845448 -0.18793294 -0.66970468 0.069908053
-3.2820551 -3.7694128 5.9422255 -0.90373892 -0.10439628 -0.41515946 0.069908053
-0.47020069 -0.6755414 0.59208518 0.63523751 -0.39857632 -0.66152114 0.069908053
-0.70173275 -0.66195709 0.36582637 0.59434998 -0.45805985 -0.66100627 0.069908053
-0.47176969 -0.66030985 0.58136827 0.63536823 -0.4005121 -0.66022515 0.069908053
-1.0480922 -1.7271726 0.9845348 -0.37836844 -0.47590736 -0.79394555 0.069908053
-0.8621726 -0.94988316 0.45716843 0.36501932 -0.55382693 -0.74835598 0.069908053
-0.29190448 -0.75359315 0.80812842 0.63220853 -0.39039436 -0.66925675 0.069908053
-0.28912324 -0.62231457 0.73122096 0.61276758 -0.42001194 -0.66940713 0.069908053
-0.16025618 -1.12301 1.1320457 0.67840731 -0.31305325 -0.66465122 0.069908053
-0.3387818 -1.1468416 0.96556175 0.65652686 -0.3094973 -0.68788362 0.069908053
-0.22419851 -1.5598689 1.2347864 0.69364697 -0.21425408 -0.68771291 0.069908053
-0.30851138 -1.5716761 1.1568979 0.66120529 -0.22808459 -0.71469223 0.069908053
-0.76879936 -0.64296889 0.2928763 0.57145518 -0.49024862 -0.65809971 0.069908053
-0.83895892 -0.94337791 0.46426889 0.39681968 -0.53752363 -0.74404472 0.069908053
-0.99100751 -1.007962 0.46017456 0.12221003 -0.63741171 -0.76077002 0.069908053
0.71195042 -1.6958174 2.64676 0.85761577 -0.33867773 -0.38703048 0.069908053
0.15823074 -1.2323389 1.5241663 0.68519813 -0.36267972 -0.63163835 0.069908053
-0.2971274 -0.70116872 0.77219915 0.62602711 -0.40115803 -0.66870195 0.069908053
-0.17967466 -0.63050377 0.83333433 0.57754707 -0.45191771 -0.67986006 0.069908053
-0.2558932 -0.67595351 0.79502302 0.61372775 -0.41531035 -0.67145777 0.069908053
1.0846757 -2.4781783 4.5531211 0.98746312 0.091550708 -0.12858884 0.069908053
-1.0184923 -0.92990851 0.38780922 0.12653725 -0.66390908 -0.73702991 0.069908053
-0.96055293 -1.117222 0.55219144 0.10723858 -0.60444409 -0.78939676 0.069908053
-0.7287302 -0.99454963 0.56472325 0.48801449 -0.46366271 -0.73949897 0.069908053
-0.9244135 -0.95713037 0.43620905 0.2720769 -0.59835917 -0.75361824 0.069908053
-0.98813361 -1.0103168 0.46261168 0.1260265 -0.63541293 -0.76181871 0.069908053
-0.9356513 -1.11549 0.55501574 0.15496074 -0.59045011 -0.79205799 0.069908053
-1.3137261 -1.1521697 0.71721423 -0.55238926 -0.59397221 -0.58486164 0.069908053
-1.1355289 -0.90627486 0.36204046 -0.09379857 -0.71987593 -0.68773574 0.069908053
-0.65221614 -1.1688279 0.71639001 0.50382334 -0.40848818 -0.76111722 0.069908053
-0.85356164 -0.96118546 0.46969488 0.37031478 -0.54725856 -0.75058311 0.069908053
-0.90623689 -0.99888664 0.47524858 0.27541554 -0.58280057 -0.76451933 0.069908053
-0.74883038 -1.0961168 0.61531407 0.43474489 -0.47001317 -0.76816958 0.069908053
-0.04562756 -0.658476 0.95984989 0.51114613 -0.51081735 -0.69122738 0.069908053
-0.60358965 -0.71517062 0.49024945 0.61437058 -0.42052475 -0.66761345 0.069908053
-0.32235602 -0.52520949 0.63889557 0.60711092 -0.43260697 -0.66653395 0.069908053
-0.10063027 -1.2425053 1.248322 0.69848728 -0.28562909 -0.65614903 0.069908053
-0.25299218 -0.88113183 0.91723704 0.64562833 -0.36570299 -0.67039198 0.069908053
-0.66550952 -1.0248241 0.626679 0.52865809 -0.42686683 -0.73369294 0.069908053
-0.85481739 -0.95211345 0.4624396 0.37325269 -0.54848534 -0.74822873 0.069908053
-0.85374069 -0.93459755 0.4501054 0.38330346 -0.54828113 -0.74328071 0.069908053
-0.29415709 -1.4701852 1.1366781 0.66989219 -0.24264327 -0.7016899 0.069908053
-0.92551249 -0.97918022 0.45325449 0.25674081 -0.59768587 -0.75951022 0.069908053
1.2910388 -1.5041481 2.8582716 -0.4189868 -0.90335274 0.091672644 0.069908053
-0.34037432 -0.57838368 0.65630299 0.61870956 -0.41889521 -0.66462415 0.069908053
-0.45853165 -1.3326931 0.93821919 0.60529292 -0.30690375 -0.7344594 0.069908053
-0.14656228 -0.74831367 0.93855381 0.59861141 -0.42876047 -0.67663056 0.069908053
-0.48240712 -0.77244681 0.63771701 0.63210678 -0.38830644 -0.67056626 0.069908053
0.72956163 -0.9686408 1.3717408 -0.51506346 -0.79498041 -0.32049295 0.069908053
-0.27634034 -0.77260756 0.83388966 0.63289118 -0.38833094 -0.66981179 0.069908053
-0.1712973 -0.74080294 0.91181159 0.60462934 -0.42225406 -0.67537022 0.069908053
-0.3419345 -0.82299739 0.7999047 0.64197689 -0.37188256 -0.67049909 0.069908053
-0.90899813 -1.0786631 0.53414553 0.2240745 -0.57795709 -0.78470135 0.069908053
-0.90393949 -1.0686629 0.52827668 0.23835924 -0.57557762 -0.78223735 0.069908053
-0.8638857 -1.0348369 0.51816589 0.31880522 -0.55078381 -0.77136272 0.069908053
-0.4614608 -0.82226282 0.68583804 0.63355625 -0.37892744 -0.67455208 0.069908053
-1.0636964 -0.74708486 0.19997725 0.19181842 -0.71041739 -0.67713577 0.069908053
-1.0187927 -0.96613717 0.42009863 0.098826237 -0.65918839 -0.74545562 0.069908053
-0.88806599 -0.98536682 0.47200719 0.31053668 -0.57077992 -0.76011658 0.069908053
-1.0223582 -0.91234291 0.37119535 0.13253498 -0.66840708 -0.73189235 0.069908053
-0.84590775 -1.0095785 0.50812936 0.35627481 -0.53968155 -0.76276606 0.069908053
-0.9604159 -0.97721159 0.44116414 0.19929633 -0.62175447 -0.75743145 0.069908053
